4.6981995e+02   4.6979929e+02   4.6977863e+02   4.6975797e+02   4.6973730e+02   4.6971664e+02   4.6973730e+02   4.6975797e+02   4.6977863e+02   4.6979929e+02   4.6981995e+02   4.6984061e+02   4.6986127e+02   4.6988193e+02   4.6990259e+02   4.6992325e+02   4.6994391e+02   4.6996457e+02   4.6998523e+02   4.7000589e+02   4.7002655e+02   4.7004721e+02   4.7006787e+02   4.7008853e+02   4.7010919e+02   4.7012985e+02   4.7015051e+02   4.7017117e+02   4.7019183e+02   4.7021249e+02   4.7023315e+02   4.7025381e+02   4.7027448e+02   4.7029514e+02   4.7031580e+02   4.7033646e+02   4.7035712e+02   4.7037778e+02   4.7039844e+02   4.7041910e+02   4.7043976e+02   4.7046042e+02   4.7048108e+02   4.7050174e+02   4.7052240e+02   4.7054306e+02   4.7056372e+02   4.7058438e+02   4.7060504e+02   4.7200000e+02   4.7100000e+02   4.7100000e+02   4.7068768e+02   4.7070834e+02   4.7072900e+02   4.7100000e+02   4.7100000e+02   4.7100000e+02   4.7081165e+02   4.7083231e+02   4.7100000e+02   4.7300000e+02   4.7300000e+02   4.7100000e+02   4.7100000e+02   4.7100000e+02   4.7300000e+02   4.7400000e+02   4.7500000e+02   4.7600000e+02   4.7600000e+02   4.7500000e+02   4.7400000e+02   4.7312027e+02   4.7400000e+02   4.7700000e+02   4.8100000e+02   4.8200000e+02   4.8300000e+02   4.8400000e+02   4.8400000e+02   4.8400000e+02   4.8300000e+02   4.8300000e+02   4.8207047e+02   4.8200000e+02   4.8100000e+02   4.7900000e+02   4.7800000e+02   4.7900000e+02   4.7900000e+02   4.7800000e+02   4.7800000e+02   4.7736081e+02   4.7731100e+02   4.7800000e+02   4.7800000e+02   4.7712027e+02   4.7800000e+02   4.7900000e+02   4.7900000e+02   4.7900000e+02   4.7904980e+02   4.7907047e+02   4.7907047e+02   4.8000000e+02   4.7817007e+02   4.7812027e+02   4.7807047e+02   4.7900000e+02   4.7900000e+02   4.7804980e+02   4.7800000e+02   4.7704980e+02   4.7707047e+02   4.7704980e+02   4.7707047e+02   4.7704980e+02   4.7707047e+02   4.7700000e+02   4.7600000e+02   4.7507047e+02   4.7500000e+02   4.7500000e+02   4.7400000e+02   4.7314594e+02   4.7314093e+02   4.7310461e+02   4.7308395e+02   4.7306329e+02   4.7304263e+02   4.7302197e+02   4.7300131e+02   4.7298065e+02   4.7295999e+02   4.7293933e+02   4.7291867e+02   4.7289801e+02   4.7287735e+02   4.7285669e+02   4.7283603e+02   4.7285669e+02   4.7400000e+02   4.7500000e+02   4.7600000e+02   4.7600000e+02   4.7600000e+02   4.7500000e+02   4.7500000e+02   4.7500000e+02   4.7507047e+02   4.7600000e+02   4.7419073e+02   4.7421140e+02   4.7500000e+02   4.7500000e+02   4.7409961e+02   4.7500000e+02   4.7407047e+02   4.7404980e+02   4.7400000e+02   4.7500000e+02   4.7400000e+02   4.7300000e+02   4.7234018e+02   4.7231952e+02   4.7229886e+02   4.7227820e+02   4.7225754e+02   4.7223688e+02   4.7221622e+02   4.7219556e+02   4.7217490e+02   4.7215424e+02   4.7213358e+02   4.7211291e+02   4.7209225e+02   4.7207159e+02   4.7209225e+02   4.7207047e+02   4.7204980e+02   4.7207047e+02   4.7204980e+02   4.7207047e+02   4.7300000e+02   4.7400000e+02
4.6986975e+02   4.6984909e+02   4.6982843e+02   4.6980777e+02   4.6978711e+02   4.6976645e+02   4.6978711e+02   4.6980777e+02   4.6982843e+02   4.6984909e+02   4.6986975e+02   4.6989041e+02   4.6991107e+02   4.6993173e+02   4.6995239e+02   4.6997305e+02   4.6999371e+02   4.7001437e+02   4.7003503e+02   4.7005569e+02   4.7007635e+02   4.7009702e+02   4.7011768e+02   4.7013834e+02   4.7015900e+02   4.7017966e+02   4.7020032e+02   4.7022098e+02   4.7024164e+02   4.7026230e+02   4.7028296e+02   4.7030362e+02   4.7032428e+02   4.7034494e+02   4.7036560e+02   4.7038626e+02   4.7040692e+02   4.7042758e+02   4.7044824e+02   4.7046890e+02   4.7048956e+02   4.7051022e+02   4.7053088e+02   4.7055154e+02   4.7057220e+02   4.7059287e+02   4.7061353e+02   4.7063419e+02   4.7100000e+02   4.7100000e+02   4.7200000e+02   4.7200000e+02   4.7100000e+02   4.7100000e+02   4.7100000e+02   4.7100000e+02   4.7300000e+02   4.7300000e+02   4.7200000e+02   4.7100000e+02   4.7100000e+02   4.7200000e+02   4.7200000e+02   4.7104980e+02   4.7107047e+02   4.7200000e+02   4.7300000e+02   4.7500000e+02   4.7600000e+02   4.7700000e+02   4.7700000e+02   4.7600000e+02   4.7600000e+02   4.7400000e+02   4.7400000e+02   4.7600000e+02   4.8000000e+02   4.8100000e+02   4.8200000e+02   4.8400000e+02   4.8500000e+02   4.8400000e+02   4.8300000e+02   4.8300000e+02   4.8204980e+02   4.8200000e+02   4.8100000e+02   4.8000000e+02   4.7900000e+02   4.7900000e+02   4.7807047e+02   4.7800000e+02   4.7738995e+02   4.7734015e+02   4.7729034e+02   4.7724054e+02   4.7719073e+02   4.7800000e+02   4.7800000e+02   4.7900000e+02   4.7904980e+02   4.7907047e+02   4.8000000e+02   4.7912027e+02   4.8000000e+02   4.8000000e+02   4.8000000e+02   4.7900000e+02   4.8000000e+02   4.8000000e+02   4.7900000e+02   4.7807047e+02   4.7800000e+02   4.7800000e+02   4.7800000e+02   4.7709961e+02   4.7712027e+02   4.7709961e+02   4.7704980e+02   4.7700000e+02   4.7600000e+02   4.7600000e+02   4.7500000e+02   4.7400000e+02   4.7321640e+02   4.7321140e+02   4.7317508e+02   4.7315442e+02   4.7313376e+02   4.7311310e+02   4.7309244e+02   4.7307178e+02   4.7305112e+02   4.7303046e+02   4.7300980e+02   4.7298914e+02   4.7296848e+02   4.7294781e+02   4.7292715e+02   4.7290649e+02   4.7300000e+02   4.7300000e+02   4.7300000e+02   4.7500000e+02   4.7500000e+02   4.7500000e+02   4.7600000e+02   4.7507047e+02   4.7600000e+02   4.7600000e+02   4.7600000e+02   4.7600000e+02   4.7500000e+02   4.7426120e+02   4.7500000e+02   4.7500000e+02   4.7414941e+02   4.7414093e+02   4.7500000e+02   4.7500000e+02   4.7404980e+02   4.7500000e+02   4.7500000e+02   4.7300000e+02   4.7238998e+02   4.7236932e+02   4.7234866e+02   4.7232800e+02   4.7230734e+02   4.7228668e+02   4.7226602e+02   4.7224536e+02   4.7222470e+02   4.7220404e+02   4.7218338e+02   4.7216272e+02   4.7214206e+02   4.7212140e+02   4.7214093e+02   4.7212027e+02   4.7209961e+02   4.7212027e+02   4.7209961e+02   4.7212027e+02   4.7300000e+02   4.7400000e+02
4.6991956e+02   4.6989890e+02   4.6987823e+02   4.6985757e+02   4.6983691e+02   4.6981625e+02   4.6983691e+02   4.6985757e+02   4.6987823e+02   4.6989890e+02   4.6991956e+02   4.6994022e+02   4.6996088e+02   4.6998154e+02   4.7000220e+02   4.7002286e+02   4.7004352e+02   4.7006418e+02   4.7008484e+02   4.7010550e+02   4.7012616e+02   4.7014682e+02   4.7016748e+02   4.7018814e+02   4.7020880e+02   4.7022946e+02   4.7025012e+02   4.7027078e+02   4.7029144e+02   4.7031210e+02   4.7033276e+02   4.7035342e+02   4.7037408e+02   4.7039474e+02   4.7041541e+02   4.7043607e+02   4.7045673e+02   4.7047739e+02   4.7049805e+02   4.7051871e+02   4.7053937e+02   4.7056003e+02   4.7058069e+02   4.7060135e+02   4.7062201e+02   4.7064267e+02   4.7066333e+02   4.7100000e+02   4.7100000e+02   4.7100000e+02   4.7200000e+02   4.7200000e+02   4.7200000e+02   4.7107047e+02   4.7200000e+02   4.7200000e+02   4.7300000e+02   4.7207047e+02   4.7200000e+02   4.7107047e+02   4.7104980e+02   4.7107047e+02   4.7112027e+02   4.7109961e+02   4.7400000e+02   4.7600000e+02   4.7600000e+02   4.7700000e+02   4.7700000e+02   4.7700000e+02   4.7800000e+02   4.7800000e+02   4.7600000e+02   4.7500000e+02   4.7500000e+02   4.7600000e+02   4.7900000e+02   4.8000000e+02   4.8200000e+02   4.8400000e+02   4.8400000e+02   4.8400000e+02   4.8300000e+02   4.8212027e+02   4.8207047e+02   4.8200000e+02   4.8100000e+02   4.8100000e+02   4.8000000e+02   4.7900000e+02   4.7900000e+02   4.7800000e+02   4.7800000e+02   4.7736081e+02   4.7731100e+02   4.7726120e+02   4.7724054e+02   4.7800000e+02   4.7900000e+02   4.8000000e+02   4.8000000e+02   4.8000000e+02   4.8000000e+02   4.8000000e+02   4.8000000e+02   4.8100000e+02   4.8100000e+02   4.8100000e+02   4.8000000e+02   4.8000000e+02   4.8000000e+02   4.7900000e+02   4.7807047e+02   4.7900000e+02   4.7900000e+02   4.7800000e+02   4.7717007e+02   4.7712027e+02   4.7707047e+02   4.7800000e+02   4.7700000e+02   4.7600000e+02   4.7500000e+02   4.7500000e+02   4.7328186e+02   4.7324554e+02   4.7322488e+02   4.7320422e+02   4.7318356e+02   4.7316290e+02   4.7314224e+02   4.7312158e+02   4.7310092e+02   4.7308026e+02   4.7305960e+02   4.7303894e+02   4.7301828e+02   4.7299762e+02   4.7300000e+02   4.7300000e+02   4.7400000e+02   4.7400000e+02   4.7307047e+02   4.7400000e+02   4.7407047e+02   4.7500000e+02   4.7600000e+02   4.7600000e+02   4.7600000e+02   4.7700000e+02   4.7607047e+02   4.7600000e+02   4.7600000e+02   4.7600000e+02   4.7500000e+02   4.7500000e+02   4.7421140e+02   4.7419073e+02   4.7417007e+02   4.7412027e+02   4.7409961e+02   4.7500000e+02   4.7400000e+02   4.7300000e+02   4.7243979e+02   4.7241913e+02   4.7239847e+02   4.7237781e+02   4.7235715e+02   4.7233649e+02   4.7231583e+02   4.7229517e+02   4.7227451e+02   4.7225385e+02   4.7223318e+02   4.7221252e+02   4.7219186e+02   4.7217120e+02   4.7219073e+02   4.7217007e+02   4.7214941e+02   4.7217007e+02   4.7400000e+02   4.7500000e+02   4.7500000e+02   4.7500000e+02
4.6996936e+02   4.6994870e+02   4.6992804e+02   4.6990738e+02   4.6988672e+02   4.6986606e+02   4.6988672e+02   4.6990738e+02   4.6992804e+02   4.6994870e+02   4.6996936e+02   4.6999002e+02   4.7001068e+02   4.7003134e+02   4.7005200e+02   4.7007266e+02   4.7009332e+02   4.7011398e+02   4.7013464e+02   4.7015530e+02   4.7017596e+02   4.7019662e+02   4.7021729e+02   4.7023795e+02   4.7025861e+02   4.7027927e+02   4.7029993e+02   4.7032059e+02   4.7034125e+02   4.7036191e+02   4.7038257e+02   4.7040323e+02   4.7042389e+02   4.7044455e+02   4.7046521e+02   4.7048587e+02   4.7050653e+02   4.7052719e+02   4.7054785e+02   4.7056851e+02   4.7058917e+02   4.7060983e+02   4.7063049e+02   4.7065115e+02   4.7067181e+02   4.7069247e+02   4.7071313e+02   4.7073380e+02   4.7078360e+02   4.7083340e+02   4.7100000e+02   4.7200000e+02   4.7200000e+02   4.7200000e+02   4.7300000e+02   4.7300000e+02   4.7207047e+02   4.7204980e+02   4.7200000e+02   4.7200000e+02   4.7109961e+02   4.7112027e+02   4.7114093e+02   4.7200000e+02   4.7600000e+02   4.8000000e+02   4.8000000e+02   4.8000000e+02   4.7900000e+02   4.7800000e+02   4.7800000e+02   4.7700000e+02   4.7600000e+02   4.7504980e+02   4.7600000e+02   4.7700000e+02   4.7900000e+02   4.8000000e+02   4.8200000e+02   4.8300000e+02   4.8400000e+02   4.8400000e+02   4.8400000e+02   4.8300000e+02   4.8300000e+02   4.8200000e+02   4.8200000e+02   4.8200000e+02   4.8100000e+02   4.8100000e+02   4.8000000e+02   4.7900000e+02   4.7800000e+02   4.7800000e+02   4.7800000e+02   4.7800000e+02   4.7800000e+02   4.7900000e+02   4.8000000e+02   4.8100000e+02   4.8004980e+02   4.8007047e+02   4.8007047e+02   4.8007047e+02   4.8007047e+02   4.8007047e+02   4.8012027e+02   4.8007047e+02   4.8007047e+02   4.8004980e+02   4.8000000e+02   4.8000000e+02   4.7900000e+02   4.7814093e+02   4.7807047e+02   4.7800000e+02   4.7800000e+02   4.7800000e+02   4.7800000e+02   4.7700000e+02   4.7604980e+02   4.7600000e+02   4.7500000e+02   4.7400000e+02   4.7331601e+02   4.7329535e+02   4.7327469e+02   4.7325403e+02   4.7323337e+02   4.7321271e+02   4.7319205e+02   4.7317139e+02   4.7315073e+02   4.7313007e+02   4.7310941e+02   4.7308875e+02   4.7306808e+02   4.7304742e+02   4.7400000e+02   4.7400000e+02   4.7400000e+02   4.7500000e+02   4.7400000e+02   4.7400000e+02   4.7500000e+02   4.7600000e+02   4.7700000e+02   4.7700000e+02   4.7800000e+02   4.7800000e+02   4.7800000e+02   4.7800000e+02   4.7800000e+02   4.7800000e+02   4.7700000e+02   4.7600000e+02   4.7500000e+02   4.7500000e+02   4.7500000e+02   4.7412027e+02   4.7500000e+02   4.7500000e+02   4.7400000e+02   4.7400000e+02   4.7248959e+02   4.7246893e+02   4.7244827e+02   4.7242761e+02   4.7240695e+02   4.7238629e+02   4.7236563e+02   4.7234497e+02   4.7232431e+02   4.7230365e+02   4.7228299e+02   4.7226233e+02   4.7224167e+02   4.7222101e+02   4.7224054e+02   4.7221988e+02   4.7219922e+02   4.7300000e+02   4.7600000e+02   4.7600000e+02   4.7507047e+02   4.7600000e+02
4.7001916e+02   4.6999850e+02   4.6997784e+02   4.6995718e+02   4.6993652e+02   4.6991586e+02   4.6993652e+02   4.6995718e+02   4.6997784e+02   4.6999850e+02   4.7001916e+02   4.7003983e+02   4.7006049e+02   4.7008115e+02   4.7010181e+02   4.7012247e+02   4.7014313e+02   4.7016379e+02   4.7018445e+02   4.7020511e+02   4.7022577e+02   4.7024643e+02   4.7026709e+02   4.7028775e+02   4.7030841e+02   4.7032907e+02   4.7034973e+02   4.7037039e+02   4.7039105e+02   4.7041171e+02   4.7043237e+02   4.7045303e+02   4.7047369e+02   4.7049435e+02   4.7051501e+02   4.7053568e+02   4.7055634e+02   4.7057700e+02   4.7059766e+02   4.7061832e+02   4.7063898e+02   4.7065964e+02   4.7068030e+02   4.7070096e+02   4.7072162e+02   4.7074228e+02   4.7076294e+02   4.7078360e+02   4.7080426e+02   4.7100000e+02   4.7200000e+02   4.7200000e+02   4.7300000e+02   4.7400000e+02   4.7400000e+02   4.7400000e+02   4.7300000e+02   4.7300000e+02   4.7300000e+02   4.7300000e+02   4.7114941e+02   4.7117007e+02   4.7119073e+02   4.7300000e+02   4.7600000e+02   4.8100000e+02   4.8200000e+02   4.8200000e+02   4.8100000e+02   4.8000000e+02   4.7900000e+02   4.7800000e+02   4.7700000e+02   4.7600000e+02   4.7600000e+02   4.7607047e+02   4.7700000e+02   4.7900000e+02   4.8200000e+02   4.8300000e+02   4.8400000e+02   4.8400000e+02   4.8307047e+02   4.8400000e+02   4.8400000e+02   4.8300000e+02   4.8204980e+02   4.8200000e+02   4.8200000e+02   4.8100000e+02   4.8000000e+02   4.7900000e+02   4.7804980e+02   4.7807047e+02   4.7804980e+02   4.7807047e+02   4.7807047e+02   4.7900000e+02   4.8000000e+02   4.8100000e+02   4.8100000e+02   4.8012027e+02   4.8014093e+02   4.8014093e+02   4.8014093e+02   4.8014093e+02   4.8014093e+02   4.8014093e+02   4.8012027e+02   4.8007047e+02   4.8007047e+02   4.8000000e+02   4.7900000e+02   4.7900000e+02   4.7900000e+02   4.7900000e+02   4.7900000e+02   4.7900000e+02   4.7900000e+02   4.7700000e+02   4.7607047e+02   4.7600000e+02   4.7500000e+02   4.7400000e+02   4.7336581e+02   4.7334515e+02   4.7332449e+02   4.7330383e+02   4.7400000e+02   4.7400000e+02   4.7500000e+02   4.7500000e+02   4.7500000e+02   4.7400000e+02   4.7400000e+02   4.7313855e+02   4.7311789e+02   4.7309723e+02   4.7400000e+02   4.7500000e+02   4.7500000e+02   4.7500000e+02   4.7500000e+02   4.7600000e+02   4.7600000e+02   4.7600000e+02   4.7607047e+02   4.7700000e+02   4.7900000e+02   4.8000000e+02   4.8000000e+02   4.8000000e+02   4.8000000e+02   4.7800000e+02   4.7800000e+02   4.7700000e+02   4.7700000e+02   4.7600000e+02   4.7500000e+02   4.7407047e+02   4.7404980e+02   4.7500000e+02   4.7404980e+02   4.7400000e+02   4.7300000e+02   4.7251874e+02   4.7249808e+02   4.7247742e+02   4.7245676e+02   4.7243610e+02   4.7241544e+02   4.7239478e+02   4.7237412e+02   4.7235345e+02   4.7233279e+02   4.7231213e+02   4.7229147e+02   4.7227081e+02   4.7229034e+02   4.7226968e+02   4.7224902e+02   4.7400000e+02   4.7700000e+02   4.7600000e+02   4.7512027e+02   4.7600000e+02
4.7006897e+02   4.7004831e+02   4.7002765e+02   4.7000699e+02   4.6998633e+02   4.6996567e+02   4.6998633e+02   4.7000699e+02   4.7002765e+02   4.7004831e+02   4.7006897e+02   4.7008963e+02   4.7011029e+02   4.7013095e+02   4.7015161e+02   4.7017227e+02   4.7019293e+02   4.7021359e+02   4.7023425e+02   4.7025491e+02   4.7027557e+02   4.7029623e+02   4.7031689e+02   4.7033755e+02   4.7035822e+02   4.7037888e+02   4.7039954e+02   4.7042020e+02   4.7044086e+02   4.7046152e+02   4.7048218e+02   4.7050284e+02   4.7052350e+02   4.7054416e+02   4.7056482e+02   4.7058548e+02   4.7060614e+02   4.7062680e+02   4.7064746e+02   4.7066812e+02   4.7068878e+02   4.7070944e+02   4.7073010e+02   4.7100000e+02   4.7077142e+02   4.7079208e+02   4.7081274e+02   4.7100000e+02   4.7200000e+02   4.7300000e+02   4.7300000e+02   4.7207047e+02   4.7207047e+02   4.7400000e+02   4.7407047e+02   4.7500000e+02   4.7400000e+02   4.7400000e+02   4.7400000e+02   4.7300000e+02   4.7200000e+02   4.7121988e+02   4.7200000e+02   4.7400000e+02   4.7500000e+02   4.7800000e+02   4.8100000e+02   4.8300000e+02   4.8300000e+02   4.8300000e+02   4.8200000e+02   4.8000000e+02   4.8000000e+02   4.7900000e+02   4.7800000e+02   4.7607047e+02   4.7700000e+02   4.7900000e+02   4.8100000e+02   4.8300000e+02   4.8300000e+02   4.8304980e+02   4.8309961e+02   4.8400000e+02   4.8400000e+02   4.8400000e+02   4.8300000e+02   4.8204980e+02   4.8200000e+02   4.8100000e+02   4.8000000e+02   4.7900000e+02   4.7809961e+02   4.7812027e+02   4.7809961e+02   4.7812027e+02   4.7900000e+02   4.8000000e+02   4.8100000e+02   4.8100000e+02   4.8100000e+02   4.8100000e+02   4.8100000e+02   4.8021140e+02   4.8021140e+02   4.8021140e+02   4.8021140e+02   4.8019073e+02   4.8014093e+02   4.8014093e+02   4.8007047e+02   4.8100000e+02   4.8100000e+02   4.8000000e+02   4.8000000e+02   4.8000000e+02   4.7907047e+02   4.8000000e+02   4.7900000e+02   4.7800000e+02   4.7700000e+02   4.7600000e+02   4.7500000e+02   4.7400000e+02   4.7400000e+02   4.7400000e+02   4.7400000e+02   4.7400000e+02   4.7400000e+02   4.7404980e+02   4.7500000e+02   4.7600000e+02   4.7500000e+02   4.7404980e+02   4.7400000e+02   4.7318835e+02   4.7316769e+02   4.7314703e+02   4.7400000e+02   4.7500000e+02   4.7600000e+02   4.7600000e+02   4.7600000e+02   4.7800000e+02   4.7800000e+02   4.7700000e+02   4.7607047e+02   4.7700000e+02   4.7900000e+02   4.8000000e+02   4.8004980e+02   4.8100000e+02   4.8000000e+02   4.7900000e+02   4.7900000e+02   4.7800000e+02   4.7700000e+02   4.7600000e+02   4.7600000e+02   4.7407047e+02   4.7400000e+02   4.7400000e+02   4.7400000e+02   4.7400000e+02   4.7400000e+02   4.7256854e+02   4.7254788e+02   4.7252722e+02   4.7250656e+02   4.7248590e+02   4.7246524e+02   4.7244458e+02   4.7242392e+02   4.7240326e+02   4.7238260e+02   4.7236194e+02   4.7234128e+02   4.7300000e+02   4.7300000e+02   4.7231949e+02   4.7229883e+02   4.7500000e+02   4.7600000e+02   4.7600000e+02   4.7600000e+02   4.7700000e+02
4.7011877e+02   4.7009811e+02   4.7007745e+02   4.7005679e+02   4.7003613e+02   4.7001547e+02   4.7003613e+02   4.7005679e+02   4.7007745e+02   4.7009811e+02   4.7011877e+02   4.7013943e+02   4.7016010e+02   4.7018076e+02   4.7020142e+02   4.7022208e+02   4.7024274e+02   4.7026340e+02   4.7028406e+02   4.7030472e+02   4.7032538e+02   4.7034604e+02   4.7036670e+02   4.7038736e+02   4.7040802e+02   4.7042868e+02   4.7044934e+02   4.7047000e+02   4.7049066e+02   4.7051132e+02   4.7053198e+02   4.7055264e+02   4.7057330e+02   4.7059396e+02   4.7061462e+02   4.7063528e+02   4.7065594e+02   4.7067661e+02   4.7069727e+02   4.7071793e+02   4.7073859e+02   4.7075925e+02   4.7077991e+02   4.7080057e+02   4.7082123e+02   4.7084189e+02   4.7086255e+02   4.7200000e+02   4.7200000e+02   4.7300000e+02   4.7300000e+02   4.7300000e+02   4.7300000e+02   4.7400000e+02   4.7500000e+02   4.7500000e+02   4.7500000e+02   4.7500000e+02   4.7500000e+02   4.7300000e+02   4.7300000e+02   4.7300000e+02   4.7300000e+02   4.7400000e+02   4.7500000e+02   4.7600000e+02   4.7900000e+02   4.8100000e+02   4.8400000e+02   4.8500000e+02   4.8400000e+02   4.8300000e+02   4.8200000e+02   4.8000000e+02   4.7900000e+02   4.7700000e+02   4.7700000e+02   4.7900000e+02   4.8100000e+02   4.8200000e+02   4.8400000e+02   4.8500000e+02   4.8400000e+02   4.8400000e+02   4.8404980e+02   4.8400000e+02   4.8300000e+02   4.8300000e+02   4.8300000e+02   4.8200000e+02   4.8000000e+02   4.7900000e+02   4.7900000e+02   4.7900000e+02   4.7900000e+02   4.8000000e+02   4.8100000e+02   4.8100000e+02   4.8100000e+02   4.8200000e+02   4.8200000e+02   4.8300000e+02   4.8200000e+02   4.8100000e+02   4.8100000e+02   4.8100000e+02   4.8100000e+02   4.8100000e+02   4.8019073e+02   4.8014093e+02   4.8012027e+02   4.8100000e+02   4.8100000e+02   4.8100000e+02   4.8007047e+02   4.8000000e+02   4.8000000e+02   4.7900000e+02   4.7807047e+02   4.7800000e+02   4.7700000e+02   4.7600000e+02   4.7500000e+02   4.7500000e+02   4.7500000e+02   4.7600000e+02   4.7500000e+02   4.7407047e+02   4.7404980e+02   4.7407047e+02   4.7500000e+02   4.7500000e+02   4.7500000e+02   4.7407047e+02   4.7400000e+02   4.7400000e+02   4.7321750e+02   4.7319684e+02   4.7400000e+02   4.7500000e+02   4.7600000e+02   4.7607047e+02   4.7700000e+02   4.7900000e+02   4.7700000e+02   4.7614093e+02   4.7700000e+02   4.7800000e+02   4.8000000e+02   4.8000000e+02   4.8007047e+02   4.8007047e+02   4.8000000e+02   4.8000000e+02   4.8000000e+02   4.7900000e+02   4.7800000e+02   4.7700000e+02   4.7600000e+02   4.7600000e+02   4.7400000e+02   4.7314941e+02   4.7309961e+02   4.7304980e+02   4.7300000e+02   4.7300000e+02   4.7259769e+02   4.7257703e+02   4.7255637e+02   4.7253571e+02   4.7251505e+02   4.7249438e+02   4.7247372e+02   4.7245306e+02   4.7243240e+02   4.7241174e+02   4.7239108e+02   4.7241174e+02   4.7238995e+02   4.7236929e+02   4.7300000e+02   4.7400000e+02   4.7500000e+02   4.7600000e+02   4.7700000e+02   4.7800000e+02
4.7016858e+02   4.7014792e+02   4.7012726e+02   4.7010660e+02   4.7008594e+02   4.7006528e+02   4.7008594e+02   4.7010660e+02   4.7012726e+02   4.7014792e+02   4.7016858e+02   4.7018924e+02   4.7020990e+02   4.7023056e+02   4.7025122e+02   4.7027188e+02   4.7029254e+02   4.7031320e+02   4.7033386e+02   4.7035452e+02   4.7037518e+02   4.7039584e+02   4.7041650e+02   4.7043716e+02   4.7045782e+02   4.7047849e+02   4.7049915e+02   4.7051981e+02   4.7054047e+02   4.7056113e+02   4.7058179e+02   4.7060245e+02   4.7062311e+02   4.7064377e+02   4.7066443e+02   4.7068509e+02   4.7070575e+02   4.7072641e+02   4.7074707e+02   4.7076773e+02   4.7078839e+02   4.7080905e+02   4.7082971e+02   4.7085037e+02   4.7087103e+02   4.7089169e+02   4.7100000e+02   4.7300000e+02   4.7300000e+02   4.7300000e+02   4.7400000e+02   4.7400000e+02   4.7400000e+02   4.7500000e+02   4.7500000e+02   4.7507047e+02   4.7507047e+02   4.7504980e+02   4.7500000e+02   4.7400000e+02   4.7304980e+02   4.7400000e+02   4.7400000e+02   4.7400000e+02   4.7500000e+02   4.7700000e+02   4.7800000e+02   4.8100000e+02   4.8400000e+02   4.8400000e+02   4.8500000e+02   4.8500000e+02   4.8400000e+02   4.8200000e+02   4.8000000e+02   4.7800000e+02   4.7800000e+02   4.7900000e+02   4.8100000e+02   4.8300000e+02   4.8400000e+02   4.8500000e+02   4.8404980e+02   4.8407047e+02   4.8407047e+02   4.8400000e+02   4.8304980e+02   4.8307047e+02   4.8400000e+02   4.8200000e+02   4.8100000e+02   4.8000000e+02   4.8000000e+02   4.8000000e+02   4.7904980e+02   4.7907047e+02   4.8100000e+02   4.8200000e+02   4.8200000e+02   4.8200000e+02   4.8300000e+02   4.8400000e+02   4.8300000e+02   4.8104980e+02   4.8107047e+02   4.8107047e+02   4.8200000e+02   4.8200000e+02   4.8200000e+02   4.8100000e+02   4.8100000e+02   4.8100000e+02   4.8107047e+02   4.8100000e+02   4.8007047e+02   4.8000000e+02   4.7900000e+02   4.7809961e+02   4.7804980e+02   4.7800000e+02   4.7800000e+02   4.7700000e+02   4.7507047e+02   4.7600000e+02   4.7700000e+02   4.7700000e+02   4.7700000e+02   4.7600000e+02   4.7600000e+02   4.7600000e+02   4.7500000e+02   4.7419073e+02   4.7414093e+02   4.7407047e+02   4.7400000e+02   4.7400000e+02   4.7326730e+02   4.7324664e+02   4.7500000e+02   4.7600000e+02   4.7600000e+02   4.7700000e+02   4.7800000e+02   4.7800000e+02   4.7700000e+02   4.7700000e+02   4.7900000e+02   4.8000000e+02   4.8000000e+02   4.8000000e+02   4.8000000e+02   4.8000000e+02   4.8000000e+02   4.8000000e+02   4.7907047e+02   4.7900000e+02   4.7900000e+02   4.7800000e+02   4.7700000e+02   4.7700000e+02   4.7500000e+02   4.7317007e+02   4.7312027e+02   4.7307047e+02   4.7307047e+02   4.7300000e+02   4.7264749e+02   4.7262683e+02   4.7260617e+02   4.7300000e+02   4.7256485e+02   4.7254419e+02   4.7252353e+02   4.7250287e+02   4.7248221e+02   4.7246155e+02   4.7244089e+02   4.7246042e+02   4.7243976e+02   4.7241910e+02   4.7300000e+02   4.7307047e+02   4.7500000e+02   4.7600000e+02   4.7700000e+02   4.7700000e+02
4.7021838e+02   4.7019772e+02   4.7017706e+02   4.7015640e+02   4.7013574e+02   4.7011508e+02   4.7013574e+02   4.7015640e+02   4.7017706e+02   4.7019772e+02   4.7021838e+02   4.7023904e+02   4.7025970e+02   4.7028037e+02   4.7030103e+02   4.7032169e+02   4.7034235e+02   4.7036301e+02   4.7038367e+02   4.7040433e+02   4.7042499e+02   4.7044565e+02   4.7046631e+02   4.7048697e+02   4.7050763e+02   4.7052829e+02   4.7054895e+02   4.7056961e+02   4.7059027e+02   4.7061093e+02   4.7063159e+02   4.7065225e+02   4.7067291e+02   4.7069357e+02   4.7071423e+02   4.7073489e+02   4.7075555e+02   4.7077621e+02   4.7079688e+02   4.7081754e+02   4.7083820e+02   4.7085886e+02   4.7087952e+02   4.7090018e+02   4.7200000e+02   4.7300000e+02   4.7300000e+02   4.7400000e+02   4.7304980e+02   4.7307047e+02   4.7500000e+02   4.7407047e+02   4.7500000e+02   4.7600000e+02   4.7600000e+02   4.7507047e+02   4.7512027e+02   4.7600000e+02   4.7600000e+02   4.7500000e+02   4.7400000e+02   4.7400000e+02   4.7407047e+02   4.7500000e+02   4.7600000e+02   4.7700000e+02   4.7800000e+02   4.8100000e+02   4.8300000e+02   4.8500000e+02   4.8600000e+02   4.8600000e+02   4.8600000e+02   4.8400000e+02   4.8200000e+02   4.8100000e+02   4.7900000e+02   4.7900000e+02   4.8100000e+02   4.8200000e+02   4.8400000e+02   4.8407047e+02   4.8412027e+02   4.8412027e+02   4.8500000e+02   4.8500000e+02   4.8500000e+02   4.8500000e+02   4.8400000e+02   4.8300000e+02   4.8200000e+02   4.8200000e+02   4.8100000e+02   4.8000000e+02   4.7909961e+02   4.7912027e+02   4.7914093e+02   4.8100000e+02   4.8200000e+02   4.8300000e+02   4.8300000e+02   4.8400000e+02   4.8300000e+02   4.8109961e+02   4.8112027e+02   4.8200000e+02   4.8300000e+02   4.8300000e+02   4.8200000e+02   4.8107047e+02   4.8200000e+02   4.8107047e+02   4.8107047e+02   4.8100000e+02   4.8004980e+02   4.8000000e+02   4.7900000e+02   4.7900000e+02   4.7900000e+02   4.7900000e+02   4.7900000e+02   4.7700000e+02   4.7600000e+02   4.7600000e+02   4.7700000e+02   4.7707047e+02   4.7800000e+02   4.7700000e+02   4.7800000e+02   4.7700000e+02   4.7700000e+02   4.7600000e+02   4.7600000e+02   4.7600000e+02   4.7400000e+02   4.7333777e+02   4.7331711e+02   4.7400000e+02   4.7600000e+02   4.7600000e+02   4.7604980e+02   4.7700000e+02   4.7800000e+02   4.7900000e+02   4.7800000e+02   4.7800000e+02   4.8000000e+02   4.8000000e+02   4.7912027e+02   4.7917007e+02   4.7914093e+02   4.7907047e+02   4.7904980e+02   4.7907047e+02   4.7904980e+02   4.7900000e+02   4.7807047e+02   4.7800000e+02   4.7800000e+02   4.7700000e+02   4.7500000e+02   4.7319073e+02   4.7400000e+02   4.7400000e+02   4.7400000e+02   4.7300000e+02   4.7269730e+02   4.7267664e+02   4.7265598e+02   4.7400000e+02   4.7400000e+02   4.7300000e+02   4.7300000e+02   4.7400000e+02   4.7300000e+02   4.7400000e+02   4.7400000e+02   4.7400000e+02   4.7248956e+02   4.7300000e+02   4.7300000e+02   4.7304980e+02   4.7400000e+02   4.7500000e+02   4.7600000e+02   4.7700000e+02
4.7026819e+02   4.7024753e+02   4.7022687e+02   4.7020621e+02   4.7018555e+02   4.7016489e+02   4.7018555e+02   4.7020621e+02   4.7022687e+02   4.7024753e+02   4.7026819e+02   4.7028885e+02   4.7030951e+02   4.7033017e+02   4.7035083e+02   4.7037149e+02   4.7039215e+02   4.7041281e+02   4.7043347e+02   4.7045413e+02   4.7047479e+02   4.7049545e+02   4.7051611e+02   4.7053677e+02   4.7055743e+02   4.7057809e+02   4.7059875e+02   4.7061942e+02   4.7064008e+02   4.7066074e+02   4.7068140e+02   4.7070206e+02   4.7072272e+02   4.7074338e+02   4.7076404e+02   4.7078470e+02   4.7080536e+02   4.7082602e+02   4.7084668e+02   4.7086734e+02   4.7088800e+02   4.7090866e+02   4.7092932e+02   4.7094998e+02   4.7097064e+02   4.7300000e+02   4.7300000e+02   4.7300000e+02   4.7300000e+02   4.7400000e+02   4.7500000e+02   4.7500000e+02   4.7500000e+02   4.7507047e+02   4.7600000e+02   4.7600000e+02   4.7700000e+02   4.7800000e+02   4.7700000e+02   4.7600000e+02   4.7500000e+02   4.7404980e+02   4.7407047e+02   4.7500000e+02   4.7600000e+02   4.7600000e+02   4.7800000e+02   4.8200000e+02   4.8400000e+02   4.8600000e+02   4.8700000e+02   4.8700000e+02   4.8600000e+02   4.8600000e+02   4.8400000e+02   4.8300000e+02   4.8000000e+02   4.8000000e+02   4.8100000e+02   4.8300000e+02   4.8400000e+02   4.8404980e+02   4.8409961e+02   4.8500000e+02   4.8600000e+02   4.8600000e+02   4.8600000e+02   4.8500000e+02   4.8500000e+02   4.8300000e+02   4.8207047e+02   4.8200000e+02   4.8100000e+02   4.8100000e+02   4.8000000e+02   4.7917007e+02   4.7919073e+02   4.8100000e+02   4.8200000e+02   4.8300000e+02   4.8304980e+02   4.8307047e+02   4.8300000e+02   4.8200000e+02   4.8200000e+02   4.8200000e+02   4.8207047e+02   4.8300000e+02   4.8200000e+02   4.8112027e+02   4.8114093e+02   4.8112027e+02   4.8200000e+02   4.8100000e+02   4.8100000e+02   4.8000000e+02   4.7907047e+02   4.7900000e+02   4.7807047e+02   4.7804980e+02   4.7800000e+02   4.7700000e+02   4.7607047e+02   4.7604980e+02   4.7700000e+02   4.7800000e+02   4.7800000e+02   4.7800000e+02   4.7800000e+02   4.7704980e+02   4.7700000e+02   4.7700000e+02   4.7700000e+02   4.7600000e+02   4.7500000e+02   4.7338757e+02   4.7336691e+02   4.7500000e+02   4.7600000e+02   4.7607047e+02   4.7700000e+02   4.7700000e+02   4.7800000e+02   4.8000000e+02   4.7900000e+02   4.7900000e+02   4.7900000e+02   4.7904980e+02   4.7909961e+02   4.7914941e+02   4.7912027e+02   4.7907047e+02   4.7900000e+02   4.7900000e+02   4.8000000e+02   4.8000000e+02   4.7900000e+02   4.7800000e+02   4.7700000e+02   4.7600000e+02   4.7326120e+02   4.7324054e+02   4.7400000e+02   4.7400000e+02   4.7400000e+02   4.7300000e+02   4.7300000e+02   4.7300000e+02   4.7400000e+02   4.7600000e+02   4.7600000e+02   4.7600000e+02   4.7500000e+02   4.7500000e+02   4.7400000e+02   4.7400000e+02   4.7500000e+02   4.7500000e+02   4.7300000e+02   4.7300000e+02   4.7304980e+02   4.7400000e+02   4.7500000e+02   4.7500000e+02   4.7600000e+02   4.7700000e+02
4.7031799e+02   4.7029733e+02   4.7027667e+02   4.7025601e+02   4.7023535e+02   4.7021469e+02   4.7023535e+02   4.7025601e+02   4.7027667e+02   4.7029733e+02   4.7031799e+02   4.7033865e+02   4.7035931e+02   4.7037997e+02   4.7040063e+02   4.7042130e+02   4.7044196e+02   4.7046262e+02   4.7048328e+02   4.7050394e+02   4.7052460e+02   4.7054526e+02   4.7056592e+02   4.7058658e+02   4.7060724e+02   4.7062790e+02   4.7064856e+02   4.7066922e+02   4.7068988e+02   4.7071054e+02   4.7073120e+02   4.7075186e+02   4.7077252e+02   4.7079318e+02   4.7081384e+02   4.7083450e+02   4.7085516e+02   4.7087582e+02   4.7089648e+02   4.7091714e+02   4.7093781e+02   4.7095847e+02   4.7097913e+02   4.7099979e+02   4.7102045e+02   4.7104111e+02   4.7109091e+02   4.7114072e+02   4.7300000e+02   4.7500000e+02   4.7500000e+02   4.7600000e+02   4.7600000e+02   4.7600000e+02   4.7600000e+02   4.7700000e+02   4.7800000e+02   4.7900000e+02   4.7800000e+02   4.7800000e+02   4.7800000e+02   4.7600000e+02   4.7500000e+02   4.7500000e+02   4.7507047e+02   4.7600000e+02   4.7800000e+02   4.8100000e+02   4.8500000e+02   4.8700000e+02   4.8700000e+02   4.8700000e+02   4.8700000e+02   4.8700000e+02   4.8600000e+02   4.8400000e+02   4.8100000e+02   4.8007047e+02   4.8100000e+02   4.8300000e+02   4.8400000e+02   4.8407047e+02   4.8412027e+02   4.8500000e+02   4.8600000e+02   4.8604980e+02   4.8600000e+02   4.8507047e+02   4.8500000e+02   4.8300000e+02   4.8300000e+02   4.8300000e+02   4.8300000e+02   4.8200000e+02   4.8000000e+02   4.8000000e+02   4.8100000e+02   4.8100000e+02   4.8200000e+02   4.8400000e+02   4.8400000e+02   4.8304980e+02   4.8300000e+02   4.8204980e+02   4.8207047e+02   4.8207047e+02   4.8300000e+02   4.8300000e+02   4.8200000e+02   4.8117007e+02   4.8119073e+02   4.8117007e+02   4.8200000e+02   4.8107047e+02   4.8100000e+02   4.8000000e+02   4.7904980e+02   4.7900000e+02   4.7807047e+02   4.7800000e+02   4.7800000e+02   4.7700000e+02   4.7612027e+02   4.7609961e+02   4.7700000e+02   4.7800000e+02   4.7900000e+02   4.7900000e+02   4.7900000e+02   4.7800000e+02   4.7700000e+02   4.7609961e+02   4.7604980e+02   4.7600000e+02   4.7500000e+02   4.7400000e+02   4.7400000e+02   4.7500000e+02   4.7600000e+02   4.7600000e+02   4.7700000e+02   4.7800000e+02   4.7900000e+02   4.8000000e+02   4.8000000e+02   4.8000000e+02   4.7904980e+02   4.7907047e+02   4.7912027e+02   4.8000000e+02   4.8100000e+02   4.8000000e+02   4.7900000e+02   4.7814093e+02   4.7900000e+02   4.8000000e+02   4.8000000e+02   4.7900000e+02   4.7700000e+02   4.7400000e+02   4.7400000e+02   4.7400000e+02   4.7400000e+02   4.7400000e+02   4.7307047e+02   4.7304980e+02   4.7400000e+02   4.7500000e+02   4.7500000e+02   4.7600000e+02   4.7600000e+02   4.7507047e+02   4.7504980e+02   4.7500000e+02   4.7500000e+02   4.7500000e+02   4.7500000e+02   4.7500000e+02   4.7304980e+02   4.7307047e+02   4.7307047e+02   4.7400000e+02   4.7500000e+02   4.7504980e+02   4.7507047e+02   4.7600000e+02
4.7036780e+02   4.7034714e+02   4.7032648e+02   4.7030582e+02   4.7028516e+02   4.7026450e+02   4.7028516e+02   4.7030582e+02   4.7032648e+02   4.7034714e+02   4.7036780e+02   4.7038846e+02   4.7040912e+02   4.7042978e+02   4.7045044e+02   4.7047110e+02   4.7049176e+02   4.7051242e+02   4.7053308e+02   4.7055374e+02   4.7057440e+02   4.7059506e+02   4.7061572e+02   4.7063638e+02   4.7065704e+02   4.7067770e+02   4.7069836e+02   4.7071902e+02   4.7073969e+02   4.7076035e+02   4.7078101e+02   4.7080167e+02   4.7082233e+02   4.7084299e+02   4.7086365e+02   4.7088431e+02   4.7090497e+02   4.7092563e+02   4.7094629e+02   4.7096695e+02   4.7098761e+02   4.7100827e+02   4.7102893e+02   4.7104959e+02   4.7107025e+02   4.7109091e+02   4.7111157e+02   4.7116138e+02   4.7300000e+02   4.7500000e+02   4.7504980e+02   4.7600000e+02   4.7700000e+02   4.7800000e+02   4.7900000e+02   4.7900000e+02   4.7900000e+02   4.7900000e+02   4.7900000e+02   4.7900000e+02   4.8100000e+02   4.8000000e+02   4.7800000e+02   4.7600000e+02   4.7600000e+02   4.7700000e+02   4.7800000e+02   4.8000000e+02   4.8400000e+02   4.8600000e+02   4.8700000e+02   4.8707047e+02   4.8704980e+02   4.8700000e+02   4.8700000e+02   4.8500000e+02   4.8300000e+02   4.8100000e+02   4.8100000e+02   4.8300000e+02   4.8500000e+02   4.8600000e+02   4.8600000e+02   4.8600000e+02   4.8600000e+02   4.8607047e+02   4.8600000e+02   4.8504980e+02   4.8500000e+02   4.8400000e+02   4.8400000e+02   4.8400000e+02   4.8300000e+02   4.8200000e+02   4.8200000e+02   4.8100000e+02   4.8200000e+02   4.8200000e+02   4.8300000e+02   4.8400000e+02   4.8400000e+02   4.8307047e+02   4.8300000e+02   4.8209961e+02   4.8212027e+02   4.8214093e+02   4.8400000e+02   4.8400000e+02   4.8200000e+02   4.8200000e+02   4.8124054e+02   4.8200000e+02   4.8300000e+02   4.8200000e+02   4.8100000e+02   4.8000000e+02   4.8000000e+02   4.8000000e+02   4.7900000e+02   4.7800000e+02   4.7707047e+02   4.7700000e+02   4.7700000e+02   4.7614941e+02   4.7800000e+02   4.7900000e+02   4.7900000e+02   4.7900000e+02   4.7900000e+02   4.7800000e+02   4.7800000e+02   4.7700000e+02   4.7700000e+02   4.7600000e+02   4.7500000e+02   4.7500000e+02   4.7500000e+02   4.7500000e+02   4.7507047e+02   4.7512027e+02   4.7700000e+02   4.7700000e+02   4.7800000e+02   4.7900000e+02   4.7907047e+02   4.8000000e+02   4.8000000e+02   4.7912027e+02   4.7914093e+02   4.8100000e+02   4.8100000e+02   4.8100000e+02   4.8000000e+02   4.7807047e+02   4.7807047e+02   4.7800000e+02   4.7800000e+02   4.7800000e+02   4.7600000e+02   4.7500000e+02   4.7500000e+02   4.7400000e+02   4.7319073e+02   4.7314093e+02   4.7312027e+02   4.7309961e+02   4.7400000e+02   4.7407047e+02   4.7412027e+02   4.7500000e+02   4.7504980e+02   4.7512027e+02   4.7600000e+02   4.7600000e+02   4.7507047e+02   4.7504980e+02   4.7600000e+02   4.7500000e+02   4.7400000e+02   4.7400000e+02   4.7600000e+02   4.7600000e+02   4.7500000e+02   4.7507047e+02   4.7512027e+02   4.7600000e+02
4.7041760e+02   4.7039694e+02   4.7037628e+02   4.7035562e+02   4.7033496e+02   4.7031430e+02   4.7033496e+02   4.7035562e+02   4.7037628e+02   4.7039694e+02   4.7041760e+02   4.7043826e+02   4.7045892e+02   4.7047958e+02   4.7050024e+02   4.7052090e+02   4.7054156e+02   4.7056223e+02   4.7058289e+02   4.7060355e+02   4.7062421e+02   4.7064487e+02   4.7066553e+02   4.7068619e+02   4.7070685e+02   4.7072751e+02   4.7074817e+02   4.7076883e+02   4.7078949e+02   4.7081015e+02   4.7083081e+02   4.7085147e+02   4.7087213e+02   4.7089279e+02   4.7091345e+02   4.7093411e+02   4.7095477e+02   4.7097543e+02   4.7099609e+02   4.7101675e+02   4.7103741e+02   4.7105807e+02   4.7107874e+02   4.7109940e+02   4.7112006e+02   4.7114072e+02   4.7116138e+02   4.7118204e+02   4.7200000e+02   4.7500000e+02   4.7500000e+02   4.7600000e+02   4.7700000e+02   4.7900000e+02   4.7900000e+02   4.8000000e+02   4.8200000e+02   4.8200000e+02   4.8200000e+02   4.8200000e+02   4.8200000e+02   4.8100000e+02   4.7900000e+02   4.7900000e+02   4.7900000e+02   4.7800000e+02   4.7800000e+02   4.8000000e+02   4.8300000e+02   4.8600000e+02   4.8700000e+02   4.8704980e+02   4.8707047e+02   4.8707047e+02   4.8700000e+02   4.8600000e+02   4.8400000e+02   4.8200000e+02   4.8200000e+02   4.8400000e+02   4.8600000e+02   4.8600000e+02   4.8700000e+02   4.8700000e+02   4.8700000e+02   4.8700000e+02   4.8700000e+02   4.8700000e+02   4.8600000e+02   4.8500000e+02   4.8500000e+02   4.8400000e+02   4.8300000e+02   4.8207047e+02   4.8200000e+02   4.8200000e+02   4.8300000e+02   4.8300000e+02   4.8300000e+02   4.8304980e+02   4.8400000e+02   4.8400000e+02   4.8300000e+02   4.8300000e+02   4.8300000e+02   4.8300000e+02   4.8400000e+02   4.8400000e+02   4.8300000e+02   4.8300000e+02   4.8300000e+02   4.8200000e+02   4.8204980e+02   4.8200000e+02   4.8200000e+02   4.8100000e+02   4.8007047e+02   4.8000000e+02   4.8000000e+02   4.7900000e+02   4.7800000e+02   4.7700000e+02   4.7700000e+02   4.7619922e+02   4.7800000e+02   4.7900000e+02   4.7900000e+02   4.7812027e+02   4.7807047e+02   4.7804980e+02   4.7800000e+02   4.7800000e+02   4.7700000e+02   4.7800000e+02   4.7700000e+02   4.7600000e+02   4.7700000e+02   4.7600000e+02   4.7600000e+02   4.7600000e+02   4.7600000e+02   4.7700000e+02   4.7800000e+02   4.7900000e+02   4.8000000e+02   4.8000000e+02   4.8000000e+02   4.7917007e+02   4.7919073e+02   4.8000000e+02   4.8000000e+02   4.8000000e+02   4.8000000e+02   4.7900000e+02   4.7800000e+02   4.7800000e+02   4.7600000e+02   4.7500000e+02   4.7417007e+02   4.7412027e+02   4.7407047e+02   4.7400000e+02   4.7321140e+02   4.7400000e+02   4.7400000e+02   4.7400000e+02   4.7400000e+02   4.7404980e+02   4.7500000e+02   4.7500000e+02   4.7507047e+02   4.7512027e+02   4.7517007e+02   4.7600000e+02   4.7600000e+02   4.7509961e+02   4.7600000e+02   4.7500000e+02   4.7407047e+02   4.7404980e+02   4.7600000e+02   4.7600000e+02   4.7600000e+02   4.7600000e+02   4.7600000e+02   4.7700000e+02
4.7046741e+02   4.7044675e+02   4.7042609e+02   4.7040543e+02   4.7038477e+02   4.7036411e+02   4.7038477e+02   4.7040543e+02   4.7042609e+02   4.7044675e+02   4.7046741e+02   4.7048807e+02   4.7050873e+02   4.7052939e+02   4.7055005e+02   4.7057071e+02   4.7059137e+02   4.7061203e+02   4.7063269e+02   4.7065335e+02   4.7067401e+02   4.7069467e+02   4.7071533e+02   4.7073599e+02   4.7075665e+02   4.7077731e+02   4.7079797e+02   4.7081863e+02   4.7083929e+02   4.7085995e+02   4.7088062e+02   4.7090128e+02   4.7092194e+02   4.7094260e+02   4.7096326e+02   4.7098392e+02   4.7100458e+02   4.7102524e+02   4.7104590e+02   4.7106656e+02   4.7108722e+02   4.7110788e+02   4.7112854e+02   4.7114920e+02   4.7116986e+02   4.7119052e+02   4.7121118e+02   4.7123184e+02   4.7200000e+02   4.7400000e+02   4.7500000e+02   4.7600000e+02   4.7700000e+02   4.7800000e+02   4.7900000e+02   4.8000000e+02   4.8200000e+02   4.8300000e+02   4.8300000e+02   4.8300000e+02   4.8200000e+02   4.8100000e+02   4.8000000e+02   4.8000000e+02   4.7900000e+02   4.7900000e+02   4.7900000e+02   4.8100000e+02   4.8400000e+02   4.8600000e+02   4.8800000e+02   4.8800000e+02   4.8712027e+02   4.8707047e+02   4.8700000e+02   4.8600000e+02   4.8500000e+02   4.8300000e+02   4.8300000e+02   4.8400000e+02   4.8600000e+02   4.8700000e+02   4.8800000e+02   4.8800000e+02   4.8704980e+02   4.8707047e+02   4.8707047e+02   4.8800000e+02   4.8700000e+02   4.8600000e+02   4.8600000e+02   4.8500000e+02   4.8400000e+02   4.8207047e+02   4.8204980e+02   4.8207047e+02   4.8300000e+02   4.8307047e+02   4.8400000e+02   4.8307047e+02   4.8400000e+02   4.8400000e+02   4.8307047e+02   4.8400000e+02   4.8400000e+02   4.8307047e+02   4.8307047e+02   4.8307047e+02   4.8400000e+02   4.8400000e+02   4.8300000e+02   4.8204980e+02   4.8207047e+02   4.8207047e+02   4.8200000e+02   4.8100000e+02   4.8100000e+02   4.8100000e+02   4.8100000e+02   4.8000000e+02   4.7900000e+02   4.7800000e+02   4.7626968e+02   4.7624902e+02   4.7800000e+02   4.7900000e+02   4.7900000e+02   4.7900000e+02   4.7900000e+02   4.7807047e+02   4.7804980e+02   4.7800000e+02   4.7800000e+02   4.7800000e+02   4.7800000e+02   4.7800000e+02   4.7800000e+02   4.7800000e+02   4.7700000e+02   4.7700000e+02   4.7700000e+02   4.7800000e+02   4.8000000e+02   4.8100000e+02   4.8100000e+02   4.8100000e+02   4.8000000e+02   4.8000000e+02   4.8000000e+02   4.8000000e+02   4.7912027e+02   4.7907047e+02   4.8000000e+02   4.7900000e+02   4.7800000e+02   4.7700000e+02   4.7600000e+02   4.7500000e+02   4.7419073e+02   4.7500000e+02   4.7404980e+02   4.7400000e+02   4.7500000e+02   4.7500000e+02   4.7500000e+02   4.7500000e+02   4.7500000e+02   4.7500000e+02   4.7500000e+02   4.7504980e+02   4.7507047e+02   4.7512027e+02   4.7600000e+02   4.7600000e+02   4.7600000e+02   4.7514941e+02   4.7600000e+02   4.7600000e+02   4.7500000e+02   4.7409961e+02   4.7412027e+02   4.7500000e+02   4.7504980e+02   4.7509961e+02   4.7514941e+02   4.7700000e+02
4.7051721e+02   4.7049655e+02   4.7047589e+02   4.7045523e+02   4.7043457e+02   4.7041391e+02   4.7043457e+02   4.7045523e+02   4.7047589e+02   4.7049655e+02   4.7051721e+02   4.7053787e+02   4.7055853e+02   4.7057919e+02   4.7059985e+02   4.7062051e+02   4.7064117e+02   4.7066183e+02   4.7068250e+02   4.7070316e+02   4.7072382e+02   4.7074448e+02   4.7076514e+02   4.7078580e+02   4.7080646e+02   4.7082712e+02   4.7084778e+02   4.7086844e+02   4.7088910e+02   4.7090976e+02   4.7093042e+02   4.7095108e+02   4.7097174e+02   4.7099240e+02   4.7101306e+02   4.7103372e+02   4.7105438e+02   4.7107504e+02   4.7109570e+02   4.7111636e+02   4.7113702e+02   4.7115768e+02   4.7117834e+02   4.7119901e+02   4.7121967e+02   4.7124033e+02   4.7126099e+02   4.7128165e+02   4.7130231e+02   4.7200000e+02   4.7400000e+02   4.7500000e+02   4.7600000e+02   4.7700000e+02   4.7900000e+02   4.8000000e+02   4.8100000e+02   4.8300000e+02   4.8400000e+02   4.8400000e+02   4.8300000e+02   4.8200000e+02   4.8100000e+02   4.8000000e+02   4.8000000e+02   4.8100000e+02   4.8000000e+02   4.8100000e+02   4.8300000e+02   4.8600000e+02   4.8800000e+02   4.8900000e+02   4.8900000e+02   4.8900000e+02   4.8800000e+02   4.8600000e+02   4.8400000e+02   4.8304980e+02   4.8400000e+02   4.8500000e+02   4.8600000e+02   4.8800000e+02   4.8900000e+02   4.8900000e+02   4.8800000e+02   4.8800000e+02   4.8800000e+02   4.8704980e+02   4.8700000e+02   4.8600000e+02   4.8504980e+02   4.8500000e+02   4.8500000e+02   4.8300000e+02   4.8209961e+02   4.8212027e+02   4.8300000e+02   4.8400000e+02   4.8400000e+02   4.8400000e+02   4.8400000e+02   4.8400000e+02   4.8312027e+02   4.8400000e+02   4.8500000e+02   4.8400000e+02   4.8314093e+02   4.8312027e+02   4.8400000e+02   4.8500000e+02   4.8400000e+02   4.8300000e+02   4.8209961e+02   4.8204980e+02   4.8200000e+02   4.8104980e+02   4.8107047e+02   4.8104980e+02   4.8100000e+02   4.8000000e+02   4.8000000e+02   4.7900000e+02   4.7700000e+02   4.7700000e+02   4.8000000e+02   4.8100000e+02   4.8000000e+02   4.8000000e+02   4.8000000e+02   4.7900000e+02   4.7900000e+02   4.7900000e+02   4.7807047e+02   4.7804980e+02   4.7800000e+02   4.7717007e+02   4.7712027e+02   4.7707047e+02   4.7707047e+02   4.7704980e+02   4.7707047e+02   4.7800000e+02   4.8000000e+02   4.8004980e+02   4.8100000e+02   4.8100000e+02   4.8200000e+02   4.8200000e+02   4.8200000e+02   4.8100000e+02   4.8000000e+02   4.8000000e+02   4.7900000e+02   4.7900000e+02   4.7700000e+02   4.7607047e+02   4.7600000e+02   4.7600000e+02   4.7600000e+02   4.7500000e+02   4.7407047e+02   4.7404980e+02   4.7500000e+02   4.7600000e+02   4.7700000e+02   4.7700000e+02   4.7700000e+02   4.7600000e+02   4.7507047e+02   4.7507047e+02   4.7512027e+02   4.7514093e+02   4.7600000e+02   4.7604980e+02   4.7600000e+02   4.7600000e+02   4.7700000e+02   4.7600000e+02   4.7600000e+02   4.7500000e+02   4.7417007e+02   4.7500000e+02   4.7507047e+02   4.7512027e+02   4.7600000e+02   4.7700000e+02
4.7056702e+02   4.7054636e+02   4.7052570e+02   4.7050504e+02   4.7048438e+02   4.7046371e+02   4.7048438e+02   4.7050504e+02   4.7052570e+02   4.7054636e+02   4.7056702e+02   4.7058768e+02   4.7060834e+02   4.7062900e+02   4.7064966e+02   4.7067032e+02   4.7069098e+02   4.7071164e+02   4.7073230e+02   4.7075296e+02   4.7077362e+02   4.7079428e+02   4.7081494e+02   4.7083560e+02   4.7085626e+02   4.7087692e+02   4.7089758e+02   4.7091824e+02   4.7093890e+02   4.7095956e+02   4.7098022e+02   4.7100088e+02   4.7102155e+02   4.7104221e+02   4.7106287e+02   4.7108353e+02   4.7110419e+02   4.7112485e+02   4.7114551e+02   4.7116617e+02   4.7118683e+02   4.7120749e+02   4.7122815e+02   4.7124881e+02   4.7126947e+02   4.7129013e+02   4.7200000e+02   4.7133145e+02   4.7135211e+02   4.7300000e+02   4.7300000e+02   4.7304980e+02   4.7400000e+02   4.7500000e+02   4.7600000e+02   4.7700000e+02   4.7800000e+02   4.8100000e+02   4.8500000e+02   4.8500000e+02   4.8500000e+02   4.8400000e+02   4.8300000e+02   4.8300000e+02   4.8300000e+02   4.8300000e+02   4.8200000e+02   4.8100000e+02   4.8200000e+02   4.8500000e+02   4.8800000e+02   4.8900000e+02   4.8900000e+02   4.8900000e+02   4.8900000e+02   4.8700000e+02   4.8500000e+02   4.8500000e+02   4.8600000e+02   4.8600000e+02   4.8700000e+02   4.8800000e+02   4.8900000e+02   4.8900000e+02   4.8900000e+02   4.8804980e+02   4.8800000e+02   4.8800000e+02   4.8800000e+02   4.8600000e+02   4.8600000e+02   4.8600000e+02   4.8500000e+02   4.8400000e+02   4.8300000e+02   4.8300000e+02   4.8300000e+02   4.8500000e+02   4.8500000e+02   4.8407047e+02   4.8500000e+02   4.8500000e+02   4.8400000e+02   4.8400000e+02   4.8500000e+02   4.8400000e+02   4.8400000e+02   4.8400000e+02   4.8400000e+02   4.8407047e+02   4.8400000e+02   4.8300000e+02   4.8212027e+02   4.8207047e+02   4.8200000e+02   4.8109961e+02   4.8112027e+02   4.8107047e+02   4.8200000e+02   4.8100000e+02   4.8000000e+02   4.7900000e+02   4.7704980e+02   4.7800000e+02   4.8000000e+02   4.8100000e+02   4.8100000e+02   4.8100000e+02   4.8100000e+02   4.8100000e+02   4.8000000e+02   4.8000000e+02   4.7900000e+02   4.7900000e+02   4.7900000e+02   4.7719073e+02   4.7714093e+02   4.7800000e+02   4.7800000e+02   4.7800000e+02   4.7800000e+02   4.7900000e+02   4.8000000e+02   4.8007047e+02   4.8012027e+02   4.8100000e+02   4.8300000e+02   4.8300000e+02   4.8300000e+02   4.8200000e+02   4.8100000e+02   4.8000000e+02   4.7900000e+02   4.7800000e+02   4.7614093e+02   4.7607047e+02   4.7700000e+02   4.7700000e+02   4.7700000e+02   4.7600000e+02   4.7500000e+02   4.7500000e+02   4.7500000e+02   4.7600000e+02   4.7700000e+02   4.7800000e+02   4.7800000e+02   4.7700000e+02   4.7512027e+02   4.7600000e+02   4.7600000e+02   4.7600000e+02   4.7600000e+02   4.7700000e+02   4.7700000e+02   4.7700000e+02   4.7700000e+02   4.7700000e+02   4.7700000e+02   4.7600000e+02   4.7600000e+02   4.7600000e+02   4.7700000e+02   4.7600000e+02   4.7700000e+02   4.7700000e+02
4.7061682e+02   4.7059616e+02   4.7057550e+02   4.7055484e+02   4.7053418e+02   4.7051352e+02   4.7053418e+02   4.7055484e+02   4.7057550e+02   4.7059616e+02   4.7061682e+02   4.7063748e+02   4.7065814e+02   4.7067880e+02   4.7069946e+02   4.7072012e+02   4.7074078e+02   4.7076144e+02   4.7078210e+02   4.7080276e+02   4.7082343e+02   4.7084409e+02   4.7086475e+02   4.7088541e+02   4.7090607e+02   4.7092673e+02   4.7094739e+02   4.7096805e+02   4.7098871e+02   4.7100937e+02   4.7103003e+02   4.7105069e+02   4.7107135e+02   4.7109201e+02   4.7111267e+02   4.7113333e+02   4.7115399e+02   4.7117465e+02   4.7119531e+02   4.7121597e+02   4.7123663e+02   4.7125729e+02   4.7127795e+02   4.7129861e+02   4.7131927e+02   4.7200000e+02   4.7400000e+02   4.7300000e+02   4.7300000e+02   4.7400000e+02   4.7400000e+02   4.7307047e+02   4.7400000e+02   4.7500000e+02   4.7600000e+02   4.7700000e+02   4.7800000e+02   4.7900000e+02   4.8400000e+02   4.8600000e+02   4.8500000e+02   4.8500000e+02   4.8600000e+02   4.8500000e+02   4.8500000e+02   4.8500000e+02   4.8500000e+02   4.8300000e+02   4.8300000e+02   4.8600000e+02   4.8700000e+02   4.8800000e+02   4.8900000e+02   4.8907047e+02   4.8900000e+02   4.8700000e+02   4.8700000e+02   4.8700000e+02   4.8800000e+02   4.8900000e+02   4.8900000e+02   4.8900000e+02   4.8807047e+02   4.8900000e+02   4.8900000e+02   4.8807047e+02   4.8807047e+02   4.8900000e+02   4.8800000e+02   4.8700000e+02   4.8607047e+02   4.8600000e+02   4.8500000e+02   4.8400000e+02   4.8307047e+02   4.8400000e+02   4.8400000e+02   4.8500000e+02   4.8500000e+02   4.8412027e+02   4.8500000e+02   4.8500000e+02   4.8407047e+02   4.8404980e+02   4.8500000e+02   4.8500000e+02   4.8500000e+02   4.8500000e+02   4.8404980e+02   4.8404980e+02   4.8400000e+02   4.8300000e+02   4.8300000e+02   4.8300000e+02   4.8400000e+02   4.8300000e+02   4.8200000e+02   4.8200000e+02   4.8100000e+02   4.8100000e+02   4.8000000e+02   4.7900000e+02   4.7709961e+02   4.7800000e+02   4.8000000e+02   4.8200000e+02   4.8200000e+02   4.8104980e+02   4.8200000e+02   4.8100000e+02   4.8004980e+02   4.8000000e+02   4.7904980e+02   4.8000000e+02   4.8000000e+02   4.7900000e+02   4.7900000e+02   4.7900000e+02   4.7900000e+02   4.7900000e+02   4.7900000e+02   4.8000000e+02   4.8100000e+02   4.8100000e+02   4.8100000e+02   4.8200000e+02   4.8300000e+02   4.8400000e+02   4.8400000e+02   4.8300000e+02   4.8200000e+02   4.8100000e+02   4.8000000e+02   4.7900000e+02   4.7614093e+02   4.7612027e+02   4.7700000e+02   4.7614093e+02   4.7700000e+02   4.7600000e+02   4.7700000e+02   4.7700000e+02   4.7600000e+02   4.7700000e+02   4.7800000e+02   4.7900000e+02   4.7900000e+02   4.7700000e+02   4.7517007e+02   4.7700000e+02   4.7800000e+02   4.7800000e+02   4.7607047e+02   4.7700000e+02   4.7800000e+02   4.7800000e+02   4.7704980e+02   4.7707047e+02   4.7700000e+02   4.7607047e+02   4.7700000e+02   4.7700000e+02   4.7700000e+02   4.7604980e+02   4.7700000e+02   4.7704980e+02
4.7066663e+02   4.7064597e+02   4.7062531e+02   4.7060464e+02   4.7058398e+02   4.7056332e+02   4.7058398e+02   4.7060464e+02   4.7062531e+02   4.7064597e+02   4.7066663e+02   4.7068729e+02   4.7070795e+02   4.7072861e+02   4.7074927e+02   4.7076993e+02   4.7079059e+02   4.7081125e+02   4.7083191e+02   4.7085257e+02   4.7087323e+02   4.7089389e+02   4.7091455e+02   4.7093521e+02   4.7095587e+02   4.7097653e+02   4.7099719e+02   4.7101785e+02   4.7103851e+02   4.7105917e+02   4.7107983e+02   4.7110049e+02   4.7112115e+02   4.7114182e+02   4.7116248e+02   4.7118314e+02   4.7120380e+02   4.7122446e+02   4.7124512e+02   4.7126578e+02   4.7128644e+02   4.7130710e+02   4.7132776e+02   4.7134842e+02   4.7136908e+02   4.7138974e+02   4.7200000e+02   4.7200000e+02   4.7200000e+02   4.7300000e+02   4.7400000e+02   4.7400000e+02   4.7400000e+02   4.7500000e+02   4.7600000e+02   4.7700000e+02   4.7800000e+02   4.7900000e+02   4.8300000e+02   4.8500000e+02   4.8600000e+02   4.8600000e+02   4.8700000e+02   4.8700000e+02   4.8700000e+02   4.8700000e+02   4.8700000e+02   4.8700000e+02   4.8600000e+02   4.8700000e+02   4.8900000e+02   4.8900000e+02   4.9000000e+02   4.8907047e+02   4.8900000e+02   4.8800000e+02   4.8704980e+02   4.8800000e+02   4.8900000e+02   4.9000000e+02   4.8907047e+02   4.8900000e+02   4.8900000e+02   4.8814093e+02   4.8814093e+02   4.8900000e+02   4.9000000e+02   4.8900000e+02   4.8800000e+02   4.8800000e+02   4.8700000e+02   4.8600000e+02   4.8500000e+02   4.8400000e+02   4.8400000e+02   4.8500000e+02   4.8500000e+02   4.8500000e+02   4.8500000e+02   4.8500000e+02   4.8600000e+02   4.8600000e+02   4.8500000e+02   4.8600000e+02   4.8500000e+02   4.8507047e+02   4.8504980e+02   4.8600000e+02   4.8500000e+02   4.8500000e+02   4.8400000e+02   4.8307047e+02   4.8400000e+02   4.8400000e+02   4.8400000e+02   4.8300000e+02   4.8300000e+02   4.8200000e+02   4.8100000e+02   4.8000000e+02   4.7900000e+02   4.7800000e+02   4.7800000e+02   4.7800000e+02   4.8000000e+02   4.8200000e+02   4.8112027e+02   4.8200000e+02   4.8300000e+02   4.8200000e+02   4.8200000e+02   4.8100000e+02   4.8100000e+02   4.8100000e+02   4.8100000e+02   4.8100000e+02   4.8100000e+02   4.8000000e+02   4.8000000e+02   4.8000000e+02   4.8000000e+02   4.8100000e+02   4.8200000e+02   4.8200000e+02   4.8200000e+02   4.8300000e+02   4.8300000e+02   4.8300000e+02   4.8300000e+02   4.8300000e+02   4.8200000e+02   4.8100000e+02   4.8000000e+02   4.8000000e+02   4.7900000e+02   4.7800000e+02   4.7800000e+02   4.7612027e+02   4.7607047e+02   4.7604980e+02   4.7700000e+02   4.7800000e+02   4.7700000e+02   4.7800000e+02   4.7800000e+02   4.7900000e+02   4.7800000e+02   4.7700000e+02   4.7700000e+02   4.7800000e+02   4.7800000e+02   4.7800000e+02   4.7612027e+02   4.7614093e+02   4.7700000e+02   4.7800000e+02   4.7709961e+02   4.7704980e+02   4.7700000e+02   4.7700000e+02   4.7700000e+02   4.7800000e+02   4.7800000e+02   4.7700000e+02   4.7700000e+02   4.7800000e+02
4.7071643e+02   4.7069577e+02   4.7067511e+02   4.7065445e+02   4.7063379e+02   4.7061313e+02   4.7063379e+02   4.7065445e+02   4.7067511e+02   4.7069577e+02   4.7071643e+02   4.7073709e+02   4.7075775e+02   4.7077841e+02   4.7079907e+02   4.7081973e+02   4.7084039e+02   4.7086105e+02   4.7088171e+02   4.7090237e+02   4.7092303e+02   4.7094370e+02   4.7096436e+02   4.7098502e+02   4.7100568e+02   4.7102634e+02   4.7104700e+02   4.7106766e+02   4.7108832e+02   4.7110898e+02   4.7112964e+02   4.7115030e+02   4.7117096e+02   4.7119162e+02   4.7121228e+02   4.7123294e+02   4.7125360e+02   4.7127426e+02   4.7129492e+02   4.7131558e+02   4.7133624e+02   4.7135690e+02   4.7137756e+02   4.7139822e+02   4.7141888e+02   4.7143954e+02   4.7146021e+02   4.7151001e+02   4.7155981e+02   4.7200000e+02   4.7300000e+02   4.7400000e+02   4.7400000e+02   4.7500000e+02   4.7600000e+02   4.7800000e+02   4.7900000e+02   4.8000000e+02   4.8100000e+02   4.8300000e+02   4.8500000e+02   4.8500000e+02   4.8700000e+02   4.8800000e+02   4.8800000e+02   4.8900000e+02   4.8900000e+02   4.8900000e+02   4.8900000e+02   4.8800000e+02   4.9000000e+02   4.9100000e+02   4.9100000e+02   4.9000000e+02   4.9000000e+02   4.8900000e+02   4.8900000e+02   4.8900000e+02   4.9000000e+02   4.9000000e+02   4.8907047e+02   4.8904980e+02   4.8900000e+02   4.8900000e+02   4.8900000e+02   4.9000000e+02   4.9000000e+02   4.9000000e+02   4.8900000e+02   4.8800000e+02   4.8700000e+02   4.8700000e+02   4.8600000e+02   4.8500000e+02   4.8600000e+02   4.8700000e+02   4.8600000e+02   4.8600000e+02   4.8507047e+02   4.8600000e+02   4.8700000e+02   4.8600000e+02   4.8600000e+02   4.8600000e+02   4.8600000e+02   4.8507047e+02   4.8509961e+02   4.8600000e+02   4.8700000e+02   4.8600000e+02   4.8500000e+02   4.8400000e+02   4.8400000e+02   4.8500000e+02   4.8400000e+02   4.8307047e+02   4.8300000e+02   4.8200000e+02   4.8100000e+02   4.8000000e+02   4.8000000e+02   4.7807047e+02   4.7900000e+02   4.7900000e+02   4.8000000e+02   4.8200000e+02   4.8200000e+02   4.8200000e+02   4.8300000e+02   4.8207047e+02   4.8300000e+02   4.8300000e+02   4.8200000e+02   4.8200000e+02   4.8200000e+02   4.8200000e+02   4.8100000e+02   4.8100000e+02   4.8004980e+02   4.8007047e+02   4.8200000e+02   4.8300000e+02   4.8300000e+02   4.8300000e+02   4.8300000e+02   4.8300000e+02   4.8300000e+02   4.8217007e+02   4.8212027e+02   4.8207047e+02   4.8200000e+02   4.8200000e+02   4.8100000e+02   4.8000000e+02   4.8000000e+02   4.7900000e+02   4.7800000e+02   4.7700000e+02   4.7700000e+02   4.7700000e+02   4.7800000e+02   4.7800000e+02   4.7704980e+02   4.7707047e+02   4.7800000e+02   4.7900000e+02   4.7900000e+02   4.7800000e+02   4.7704980e+02   4.7707047e+02   4.7800000e+02   4.7700000e+02   4.7617007e+02   4.7619073e+02   4.7700000e+02   4.7800000e+02   4.7800000e+02   4.7800000e+02   4.7704980e+02   4.7707047e+02   4.7800000e+02   4.7800000e+02   4.7800000e+02   4.7800000e+02   4.7800000e+02   4.7800000e+02
4.7076624e+02   4.7074557e+02   4.7072491e+02   4.7070425e+02   4.7068359e+02   4.7066293e+02   4.7068359e+02   4.7070425e+02   4.7072491e+02   4.7074557e+02   4.7076624e+02   4.7078690e+02   4.7080756e+02   4.7082822e+02   4.7084888e+02   4.7086954e+02   4.7089020e+02   4.7091086e+02   4.7093152e+02   4.7095218e+02   4.7097284e+02   4.7099350e+02   4.7101416e+02   4.7103482e+02   4.7105548e+02   4.7107614e+02   4.7109680e+02   4.7111746e+02   4.7113812e+02   4.7115878e+02   4.7117944e+02   4.7120010e+02   4.7122076e+02   4.7124142e+02   4.7126209e+02   4.7128275e+02   4.7130341e+02   4.7132407e+02   4.7134473e+02   4.7136539e+02   4.7138605e+02   4.7140671e+02   4.7142737e+02   4.7144803e+02   4.7146869e+02   4.7148935e+02   4.7151001e+02   4.7153067e+02   4.7158047e+02   4.7163028e+02   4.7168008e+02   4.7200000e+02   4.7300000e+02   4.7400000e+02   4.7500000e+02   4.7700000e+02   4.7900000e+02   4.7900000e+02   4.8000000e+02   4.8000000e+02   4.8200000e+02   4.8400000e+02   4.8500000e+02   4.8700000e+02   4.8800000e+02   4.8900000e+02   4.8900000e+02   4.9000000e+02   4.9000000e+02   4.8900000e+02   4.8900000e+02   4.9000000e+02   4.9100000e+02   4.9007047e+02   4.9000000e+02   4.9000000e+02   4.9000000e+02   4.9000000e+02   4.8907047e+02   4.8914093e+02   4.8912027e+02   4.8907047e+02   4.8907047e+02   4.8904980e+02   4.8907047e+02   4.9000000e+02   4.9000000e+02   4.8900000e+02   4.8807047e+02   4.8800000e+02   4.8800000e+02   4.8700000e+02   4.8600000e+02   4.8600000e+02   4.8700000e+02   4.8800000e+02   4.8700000e+02   4.8600000e+02   4.8600000e+02   4.8700000e+02   4.8700000e+02   4.8607047e+02   4.8607047e+02   4.8700000e+02   4.8600000e+02   4.8600000e+02   4.8514093e+02   4.8600000e+02   4.8700000e+02   4.8600000e+02   4.8500000e+02   4.8404980e+02   4.8500000e+02   4.8407047e+02   4.8400000e+02   4.8307047e+02   4.8300000e+02   4.8300000e+02   4.8100000e+02   4.8000000e+02   4.7900000e+02   4.7812027e+02   4.7900000e+02   4.7907047e+02   4.8000000e+02   4.8100000e+02   4.8200000e+02   4.8300000e+02   4.8207047e+02   4.8212027e+02   4.8300000e+02   4.8300000e+02   4.8300000e+02   4.8207047e+02   4.8300000e+02   4.8300000e+02   4.8200000e+02   4.8200000e+02   4.8009961e+02   4.8012027e+02   4.8200000e+02   4.8300000e+02   4.8300000e+02   4.8238995e+02   4.8234015e+02   4.8229034e+02   4.8224054e+02   4.8219073e+02   4.8300000e+02   4.8300000e+02   4.8300000e+02   4.8200000e+02   4.8100000e+02   4.8200000e+02   4.8200000e+02   4.8000000e+02   4.7900000e+02   4.7900000e+02   4.7900000e+02   4.7800000e+02   4.7900000e+02   4.7900000e+02   4.7900000e+02   4.7900000e+02   4.7900000e+02   4.8000000e+02   4.7900000e+02   4.7800000e+02   4.7800000e+02   4.7800000e+02   4.7800000e+02   4.7700000e+02   4.7700000e+02   4.7800000e+02   4.7800000e+02   4.7900000e+02   4.7900000e+02   4.7900000e+02   4.7800000e+02   4.7800000e+02   4.7900000e+02   4.7900000e+02   4.7807047e+02   4.7804980e+02   4.7807047e+02   4.7900000e+02
4.7081604e+02   4.7079538e+02   4.7077472e+02   4.7075406e+02   4.7073340e+02   4.7071274e+02   4.7073340e+02   4.7075406e+02   4.7077472e+02   4.7079538e+02   4.7081604e+02   4.7083670e+02   4.7085736e+02   4.7087802e+02   4.7089868e+02   4.7091934e+02   4.7094000e+02   4.7096066e+02   4.7098132e+02   4.7100198e+02   4.7102264e+02   4.7104330e+02   4.7106396e+02   4.7108463e+02   4.7110529e+02   4.7112595e+02   4.7114661e+02   4.7116727e+02   4.7118793e+02   4.7120859e+02   4.7122925e+02   4.7124991e+02   4.7127057e+02   4.7129123e+02   4.7131189e+02   4.7133255e+02   4.7135321e+02   4.7137387e+02   4.7139453e+02   4.7141519e+02   4.7143585e+02   4.7145651e+02   4.7147717e+02   4.7149783e+02   4.7151849e+02   4.7153915e+02   4.7155981e+02   4.7158047e+02   4.7160114e+02   4.7200000e+02   4.7200000e+02   4.7200000e+02   4.7300000e+02   4.7400000e+02   4.7400000e+02   4.7500000e+02   4.7700000e+02   4.7800000e+02   4.7900000e+02   4.8000000e+02   4.8100000e+02   4.8200000e+02   4.8300000e+02   4.8400000e+02   4.8600000e+02   4.8800000e+02   4.8900000e+02   4.8907047e+02   4.9000000e+02   4.9000000e+02   4.9000000e+02   4.9100000e+02   4.9100000e+02   4.9004980e+02   4.9000000e+02   4.8924054e+02   4.8919073e+02   4.8914093e+02   4.8912027e+02   4.8914093e+02   4.8914093e+02   4.8914093e+02   4.9000000e+02   4.9000000e+02   4.9100000e+02   4.9000000e+02   4.9000000e+02   4.8900000e+02   4.8807047e+02   4.8804980e+02   4.8800000e+02   4.8700000e+02   4.8607047e+02   4.8700000e+02   4.8900000e+02   4.8900000e+02   4.8700000e+02   4.8700000e+02   4.8700000e+02   4.8700000e+02   4.8614093e+02   4.8612027e+02   4.8700000e+02   4.8800000e+02   4.8700000e+02   4.8700000e+02   4.8600000e+02   4.8600000e+02   4.8514093e+02   4.8507047e+02   4.8500000e+02   4.8500000e+02   4.8500000e+02   4.8500000e+02   4.8500000e+02   4.8400000e+02   4.8400000e+02   4.8300000e+02   4.8200000e+02   4.8100000e+02   4.8000000e+02   4.7900000e+02   4.7900000e+02   4.7907047e+02   4.8000000e+02   4.8100000e+02   4.8200000e+02   4.8300000e+02   4.8207047e+02   4.8212027e+02   4.8300000e+02   4.8400000e+02   4.8300000e+02   4.8300000e+02   4.8300000e+02   4.8300000e+02   4.8300000e+02   4.8300000e+02   4.8100000e+02   4.8100000e+02   4.8300000e+02   4.8300000e+02   4.8246042e+02   4.8241061e+02   4.8300000e+02   4.8400000e+02   4.8400000e+02   4.8400000e+02   4.8300000e+02   4.8300000e+02   4.8300000e+02   4.8200000e+02   4.8104980e+02   4.8107047e+02   4.8200000e+02   4.8000000e+02   4.7900000e+02   4.7900000e+02   4.7807047e+02   4.7804980e+02   4.8000000e+02   4.8100000e+02   4.8200000e+02   4.8100000e+02   4.8000000e+02   4.8000000e+02   4.8000000e+02   4.7804980e+02   4.7807047e+02   4.7807047e+02   4.7800000e+02   4.7800000e+02   4.7800000e+02   4.7900000e+02   4.7804980e+02   4.7807047e+02   4.8100000e+02   4.8200000e+02   4.8000000e+02   4.7900000e+02   4.7900000e+02   4.7900000e+02   4.7812027e+02   4.7809961e+02   4.7812027e+02   4.7900000e+02
4.7086584e+02   4.7084518e+02   4.7082452e+02   4.7080386e+02   4.7078320e+02   4.7076254e+02   4.7078320e+02   4.7080386e+02   4.7082452e+02   4.7084518e+02   4.7086584e+02   4.7088651e+02   4.7090717e+02   4.7092783e+02   4.7094849e+02   4.7096915e+02   4.7098981e+02   4.7101047e+02   4.7103113e+02   4.7105179e+02   4.7107245e+02   4.7109311e+02   4.7111377e+02   4.7113443e+02   4.7115509e+02   4.7117575e+02   4.7119641e+02   4.7121707e+02   4.7123773e+02   4.7125839e+02   4.7127905e+02   4.7129971e+02   4.7132037e+02   4.7134103e+02   4.7136169e+02   4.7138235e+02   4.7140302e+02   4.7142368e+02   4.7144434e+02   4.7146500e+02   4.7148566e+02   4.7150632e+02   4.7152698e+02   4.7154764e+02   4.7156830e+02   4.7158896e+02   4.7160962e+02   4.7163028e+02   4.7165094e+02   4.7200000e+02   4.7300000e+02   4.7204980e+02   4.7400000e+02   4.7400000e+02   4.7314093e+02   4.7314093e+02   4.7400000e+02   4.7600000e+02   4.7800000e+02   4.7900000e+02   4.8000000e+02   4.8000000e+02   4.8100000e+02   4.8100000e+02   4.8400000e+02   4.8700000e+02   4.8900000e+02   4.8900000e+02   4.8907047e+02   4.8907047e+02   4.8904980e+02   4.9100000e+02   4.9100000e+02   4.9100000e+02   4.9000000e+02   4.8926120e+02   4.8921140e+02   4.8919073e+02   4.9000000e+02   4.9100000e+02   4.9100000e+02   4.9100000e+02   4.9100000e+02   4.9100000e+02   4.9100000e+02   4.9100000e+02   4.9000000e+02   4.9000000e+02   4.8900000e+02   4.8800000e+02   4.8800000e+02   4.8700000e+02   4.8612027e+02   4.8800000e+02   4.8900000e+02   4.8800000e+02   4.8707047e+02   4.8704980e+02   4.8707047e+02   4.8700000e+02   4.8700000e+02   4.8700000e+02   4.8800000e+02   4.8800000e+02   4.8700000e+02   4.8700000e+02   4.8600000e+02   4.8517007e+02   4.8512027e+02   4.8507047e+02   4.8600000e+02   4.8507047e+02   4.8500000e+02   4.8404980e+02   4.8400000e+02   4.8400000e+02   4.8300000e+02   4.8207047e+02   4.8200000e+02   4.8200000e+02   4.8000000e+02   4.8000000e+02   4.8000000e+02   4.8000000e+02   4.7914093e+02   4.8000000e+02   4.8100000e+02   4.8200000e+02   4.8204980e+02   4.8300000e+02   4.8400000e+02   4.8500000e+02   4.8500000e+02   4.8400000e+02   4.8400000e+02   4.8304980e+02   4.8307047e+02   4.8300000e+02   4.8200000e+02   4.8200000e+02   4.8300000e+02   4.8400000e+02   4.8300000e+02   4.8400000e+02   4.8400000e+02   4.8400000e+02   4.8400000e+02   4.8304980e+02   4.8300000e+02   4.8204980e+02   4.8200000e+02   4.8112027e+02   4.8112027e+02   4.8107047e+02   4.8100000e+02   4.8000000e+02   4.7900000e+02   4.7814093e+02   4.7812027e+02   4.7809961e+02   4.7900000e+02   4.8000000e+02   4.8100000e+02   4.8100000e+02   4.8007047e+02   4.8004980e+02   4.8000000e+02   4.7900000e+02   4.8000000e+02   4.8000000e+02   4.8000000e+02   4.7900000e+02   4.7900000e+02   4.8000000e+02   4.7900000e+02   4.7900000e+02   4.8100000e+02   4.8200000e+02   4.8000000e+02   4.7900000e+02   4.7900000e+02   4.7819073e+02   4.7817007e+02   4.7814941e+02   4.7817007e+02   4.7900000e+02
4.7091565e+02   4.7089499e+02   4.7087433e+02   4.7085367e+02   4.7083301e+02   4.7081235e+02   4.7083301e+02   4.7085367e+02   4.7087433e+02   4.7089499e+02   4.7091565e+02   4.7093631e+02   4.7095697e+02   4.7097763e+02   4.7099829e+02   4.7101895e+02   4.7103961e+02   4.7106027e+02   4.7108093e+02   4.7110159e+02   4.7112225e+02   4.7114291e+02   4.7116357e+02   4.7118423e+02   4.7120490e+02   4.7122556e+02   4.7124622e+02   4.7126688e+02   4.7128754e+02   4.7130820e+02   4.7132886e+02   4.7134952e+02   4.7137018e+02   4.7139084e+02   4.7141150e+02   4.7143216e+02   4.7145282e+02   4.7147348e+02   4.7149414e+02   4.7151480e+02   4.7153546e+02   4.7155612e+02   4.7157678e+02   4.7159744e+02   4.7161810e+02   4.7163876e+02   4.7165942e+02   4.7168008e+02   4.7170074e+02   4.7200000e+02   4.7300000e+02   4.7204980e+02   4.7400000e+02   4.7307047e+02   4.7307047e+02   4.7314093e+02   4.7400000e+02   4.7500000e+02   4.7600000e+02   4.7700000e+02   4.7800000e+02   4.7900000e+02   4.8000000e+02   4.8100000e+02   4.8300000e+02   4.8500000e+02   4.8700000e+02   4.8900000e+02   4.8900000e+02   4.8900000e+02   4.8900000e+02   4.9000000e+02   4.9100000e+02   4.9100000e+02   4.9000000e+02   4.9000000e+02   4.9000000e+02   4.9000000e+02   4.9000000e+02   4.9200000e+02   4.9200000e+02   4.9200000e+02   4.9200000e+02   4.9107047e+02   4.9100000e+02   4.9000000e+02   4.8900000e+02   4.8900000e+02   4.8900000e+02   4.8800000e+02   4.8700000e+02   4.8619073e+02   4.8617007e+02   4.8800000e+02   4.8900000e+02   4.8800000e+02   4.8712027e+02   4.8800000e+02   4.8800000e+02   4.8800000e+02   4.8800000e+02   4.8800000e+02   4.8800000e+02   4.8700000e+02   4.8612027e+02   4.8607047e+02   4.8600000e+02   4.8519073e+02   4.8600000e+02   4.8600000e+02   4.8600000e+02   4.8507047e+02   4.8500000e+02   4.8500000e+02   4.8500000e+02   4.8300000e+02   4.8214093e+02   4.8207047e+02   4.8204980e+02   4.8200000e+02   4.8100000e+02   4.8100000e+02   4.8100000e+02   4.8000000e+02   4.8000000e+02   4.8000000e+02   4.8200000e+02   4.8300000e+02   4.8300000e+02   4.8400000e+02   4.8400000e+02   4.8407047e+02   4.8500000e+02   4.8500000e+02   4.8500000e+02   4.8400000e+02   4.8400000e+02   4.8400000e+02   4.8400000e+02   4.8400000e+02   4.8400000e+02   4.8400000e+02   4.8400000e+02   4.8500000e+02   4.8400000e+02   4.8317007e+02   4.8312027e+02   4.8307047e+02   4.8300000e+02   4.8300000e+02   4.8200000e+02   4.8114093e+02   4.8112027e+02   4.8104980e+02   4.8100000e+02   4.8100000e+02   4.8000000e+02   4.7819073e+02   4.7817007e+02   4.7814941e+02   4.7900000e+02   4.8000000e+02   4.8007047e+02   4.8012027e+02   4.8012027e+02   4.8007047e+02   4.8000000e+02   4.8100000e+02   4.8200000e+02   4.8100000e+02   4.8100000e+02   4.8000000e+02   4.8100000e+02   4.8000000e+02   4.7900000e+02   4.7855154e+02   4.7900000e+02   4.7900000e+02   4.7900000e+02   4.7900000e+02   4.7826120e+02   4.7900000e+02   4.7821988e+02   4.7819922e+02   4.7900000e+02   4.8000000e+02
4.7096545e+02   4.7094479e+02   4.7092413e+02   4.7090347e+02   4.7088281e+02   4.7086215e+02   4.7088281e+02   4.7090347e+02   4.7092413e+02   4.7094479e+02   4.7096545e+02   4.7098611e+02   4.7100677e+02   4.7102744e+02   4.7104810e+02   4.7106876e+02   4.7108942e+02   4.7111008e+02   4.7113074e+02   4.7115140e+02   4.7117206e+02   4.7119272e+02   4.7121338e+02   4.7123404e+02   4.7125470e+02   4.7127536e+02   4.7129602e+02   4.7131668e+02   4.7133734e+02   4.7135800e+02   4.7137866e+02   4.7139932e+02   4.7141998e+02   4.7144064e+02   4.7146130e+02   4.7148196e+02   4.7150262e+02   4.7152328e+02   4.7154395e+02   4.7156461e+02   4.7158527e+02   4.7160593e+02   4.7162659e+02   4.7164725e+02   4.7166791e+02   4.7168857e+02   4.7170923e+02   4.7172989e+02   4.7175055e+02   4.7177121e+02   4.7200000e+02   4.7200000e+02   4.7300000e+02   4.7300000e+02   4.7307047e+02   4.7400000e+02   4.7400000e+02   4.7500000e+02   4.7600000e+02   4.7607047e+02   4.7700000e+02   4.7900000e+02   4.8000000e+02   4.8000000e+02   4.8200000e+02   4.8300000e+02   4.8500000e+02   4.8700000e+02   4.8800000e+02   4.8800000e+02   4.8800000e+02   4.8900000e+02   4.8900000e+02   4.9000000e+02   4.8907047e+02   4.8912027e+02   4.9000000e+02   4.9007047e+02   4.9100000e+02   4.9100000e+02   4.9200000e+02   4.9200000e+02   4.9107047e+02   4.9100000e+02   4.9100000e+02   4.9000000e+02   4.8817007e+02   4.8812027e+02   4.8807047e+02   4.8800000e+02   4.8700000e+02   4.8700000e+02   4.8621988e+02   4.8800000e+02   4.8804980e+02   4.8800000e+02   4.8800000e+02   4.8800000e+02   4.8804980e+02   4.8807047e+02   4.8807047e+02   4.8900000e+02   4.8800000e+02   4.8700000e+02   4.8614093e+02   4.8700000e+02   4.8600000e+02   4.8700000e+02   4.8700000e+02   4.8700000e+02   4.8600000e+02   4.8600000e+02   4.8500000e+02   4.8404980e+02   4.8400000e+02   4.8300000e+02   4.8214093e+02   4.8209961e+02   4.8204980e+02   4.8200000e+02   4.8200000e+02   4.8200000e+02   4.8200000e+02   4.8100000e+02   4.8007047e+02   4.8100000e+02   4.8200000e+02   4.8300000e+02   4.8400000e+02   4.8500000e+02   4.8500000e+02   4.8500000e+02   4.8500000e+02   4.8504980e+02   4.8500000e+02   4.8600000e+02   4.8500000e+02   4.8500000e+02   4.8600000e+02   4.8700000e+02   4.8600000e+02   4.8500000e+02   4.8600000e+02   4.8600000e+02   4.8500000e+02   4.8319073e+02   4.8314093e+02   4.8400000e+02   4.8400000e+02   4.8300000e+02   4.8300000e+02   4.8200000e+02   4.8107047e+02   4.8104980e+02   4.8107047e+02   4.8200000e+02   4.8000000e+02   4.7824054e+02   4.7821988e+02   4.7900000e+02   4.7900000e+02   4.8000000e+02   4.8100000e+02   4.8100000e+02   4.8014093e+02   4.8100000e+02   4.8200000e+02   4.8300000e+02   4.8300000e+02   4.8300000e+02   4.8200000e+02   4.8200000e+02   4.8100000e+02   4.8100000e+02   4.7858069e+02   4.7853088e+02   4.7848108e+02   4.7843127e+02   4.7838147e+02   4.7833166e+02   4.7900000e+02   4.7900000e+02   4.7900000e+02   4.7900000e+02   4.7900000e+02   4.8000000e+02
4.7101526e+02   4.7099460e+02   4.7097394e+02   4.7095328e+02   4.7093262e+02   4.7091196e+02   4.7093262e+02   4.7095328e+02   4.7097394e+02   4.7099460e+02   4.7101526e+02   4.7103592e+02   4.7105658e+02   4.7107724e+02   4.7109790e+02   4.7111856e+02   4.7113922e+02   4.7115988e+02   4.7118054e+02   4.7120120e+02   4.7122186e+02   4.7124252e+02   4.7126318e+02   4.7128384e+02   4.7130450e+02   4.7132516e+02   4.7134583e+02   4.7136649e+02   4.7138715e+02   4.7140781e+02   4.7142847e+02   4.7144913e+02   4.7146979e+02   4.7149045e+02   4.7151111e+02   4.7153177e+02   4.7155243e+02   4.7157309e+02   4.7159375e+02   4.7161441e+02   4.7163507e+02   4.7165573e+02   4.7167639e+02   4.7169705e+02   4.7171771e+02   4.7173837e+02   4.7175903e+02   4.7177969e+02   4.7180035e+02   4.7182101e+02   4.7184167e+02   4.7189148e+02   4.7200000e+02   4.7300000e+02   4.7400000e+02   4.7400000e+02   4.7400000e+02   4.7500000e+02   4.7600000e+02   4.7607047e+02   4.7800000e+02   4.7800000e+02   4.7804980e+02   4.7900000e+02   4.8000000e+02   4.8100000e+02   4.8300000e+02   4.8500000e+02   4.8600000e+02   4.8600000e+02   4.8600000e+02   4.8700000e+02   4.8900000e+02   4.8900000e+02   4.8907047e+02   4.8907047e+02   4.9000000e+02   4.9004980e+02   4.9100000e+02   4.9104980e+02   4.9200000e+02   4.9200000e+02   4.9200000e+02   4.9100000e+02   4.9000000e+02   4.8900000e+02   4.8900000e+02   4.8900000e+02   4.9000000e+02   4.9000000e+02   4.8900000e+02   4.8800000e+02   4.8800000e+02   4.8900000e+02   4.8900000e+02   4.8900000e+02   4.8900000e+02   4.8804980e+02   4.8807047e+02   4.8812027e+02   4.8814093e+02   4.8900000e+02   4.8800000e+02   4.8700000e+02   4.8700000e+02   4.8800000e+02   4.8700000e+02   4.8800000e+02   4.8800000e+02   4.8700000e+02   4.8600000e+02   4.8500000e+02   4.8407047e+02   4.8400000e+02   4.8400000e+02   4.8400000e+02   4.8300000e+02   4.8400000e+02   4.8400000e+02   4.8207047e+02   4.8204980e+02   4.8300000e+02   4.8300000e+02   4.8100000e+02   4.8100000e+02   4.8200000e+02   4.8300000e+02   4.8400000e+02   4.8400000e+02   4.8407047e+02   4.8500000e+02   4.8600000e+02   4.8600000e+02   4.8600000e+02   4.8600000e+02   4.8700000e+02   4.8700000e+02   4.8700000e+02   4.8800000e+02   4.8900000e+02   4.8800000e+02   4.8700000e+02   4.8800000e+02   4.8700000e+02   4.8600000e+02   4.8500000e+02   4.8400000e+02   4.8400000e+02   4.8400000e+02   4.8307047e+02   4.8300000e+02   4.8200000e+02   4.8107047e+02   4.8100000e+02   4.8100000e+02   4.8200000e+02   4.8100000e+02   4.8000000e+02   4.8000000e+02   4.8000000e+02   4.8000000e+02   4.8100000e+02   4.8200000e+02   4.8200000e+02   4.8200000e+02   4.8200000e+02   4.8200000e+02   4.8207047e+02   4.8300000e+02   4.8400000e+02   4.8300000e+02   4.8200000e+02   4.8100000e+02   4.8000000e+02   4.7900000e+02   4.7855154e+02   4.7900000e+02   4.7900000e+02   4.7900000e+02   4.7900000e+02   4.7900000e+02   4.7907047e+02   4.7907047e+02   4.7907047e+02   4.7904980e+02   4.8000000e+02
4.7106506e+02   4.7104440e+02   4.7102374e+02   4.7100308e+02   4.7098242e+02   4.7096176e+02   4.7098242e+02   4.7100308e+02   4.7102374e+02   4.7104440e+02   4.7106506e+02   4.7108572e+02   4.7110638e+02   4.7112704e+02   4.7114771e+02   4.7116837e+02   4.7118903e+02   4.7120969e+02   4.7123035e+02   4.7125101e+02   4.7127167e+02   4.7129233e+02   4.7131299e+02   4.7133365e+02   4.7135431e+02   4.7137497e+02   4.7139563e+02   4.7141629e+02   4.7143695e+02   4.7145761e+02   4.7147827e+02   4.7149893e+02   4.7151959e+02   4.7154025e+02   4.7156091e+02   4.7158157e+02   4.7160223e+02   4.7162289e+02   4.7164355e+02   4.7166422e+02   4.7168488e+02   4.7170554e+02   4.7172620e+02   4.7174686e+02   4.7176752e+02   4.7178818e+02   4.7180884e+02   4.7182950e+02   4.7185016e+02   4.7187082e+02   4.7189148e+02   4.7200000e+02   4.7200000e+02   4.7207047e+02   4.7300000e+02   4.7300000e+02   4.7400000e+02   4.7500000e+02   4.7600000e+02   4.7600000e+02   4.7700000e+02   4.7800000e+02   4.7807047e+02   4.7804980e+02   4.7900000e+02   4.8000000e+02   4.8200000e+02   4.8300000e+02   4.8300000e+02   4.8300000e+02   4.8500000e+02   4.8500000e+02   4.8700000e+02   4.8900000e+02   4.8900000e+02   4.8904980e+02   4.9000000e+02   4.9007047e+02   4.9100000e+02   4.9107047e+02   4.9200000e+02   4.9200000e+02   4.9107047e+02   4.9100000e+02   4.9100000e+02   4.9000000e+02   4.9000000e+02   4.9000000e+02   4.9100000e+02   4.9000000e+02   4.8900000e+02   4.8900000e+02   4.9000000e+02   4.9000000e+02   4.9000000e+02   4.9000000e+02   4.8900000e+02   4.8900000e+02   4.8812027e+02   4.8814093e+02   4.8812027e+02   4.8807047e+02   4.8800000e+02   4.8704980e+02   4.8707047e+02   4.8800000e+02   4.8704980e+02   4.8707047e+02   4.8800000e+02   4.8700000e+02   4.8600000e+02   4.8500000e+02   4.8404980e+02   4.8400000e+02   4.8312027e+02   4.8307047e+02   4.8400000e+02   4.8400000e+02   4.8400000e+02   4.8300000e+02   4.8300000e+02   4.8400000e+02   4.8400000e+02   4.8200000e+02   4.8200000e+02   4.8300000e+02   4.8400000e+02   4.8400000e+02   4.8404980e+02   4.8500000e+02   4.8500000e+02   4.8700000e+02   4.8700000e+02   4.8700000e+02   4.8700000e+02   4.8800000e+02   4.8704980e+02   4.8800000e+02   4.8800000e+02   4.8800000e+02   4.8800000e+02   4.8800000e+02   4.8800000e+02   4.8700000e+02   4.8600000e+02   4.8500000e+02   4.8500000e+02   4.8404980e+02   4.8400000e+02   4.8307047e+02   4.8300000e+02   4.8200000e+02   4.8104980e+02   4.8100000e+02   4.8017007e+02   4.8012027e+02   4.8007047e+02   4.8100000e+02   4.8100000e+02   4.8100000e+02   4.8200000e+02   4.8200000e+02   4.8300000e+02   4.8207047e+02   4.8204980e+02   4.8300000e+02   4.8300000e+02   4.8207047e+02   4.8300000e+02   4.8300000e+02   4.8200000e+02   4.8100000e+02   4.8000000e+02   4.7907047e+02   4.7900000e+02   4.8000000e+02   4.8100000e+02   4.8000000e+02   4.8100000e+02   4.8000000e+02   4.8000000e+02   4.8000000e+02   4.8000000e+02   4.8000000e+02   4.8000000e+02   4.8000000e+02
4.7111487e+02   4.7109421e+02   4.7107355e+02   4.7105289e+02   4.7103223e+02   4.7101157e+02   4.7103223e+02   4.7105289e+02   4.7107355e+02   4.7109421e+02   4.7111487e+02   4.7113553e+02   4.7115619e+02   4.7117685e+02   4.7119751e+02   4.7121817e+02   4.7123883e+02   4.7125949e+02   4.7128015e+02   4.7130081e+02   4.7132147e+02   4.7134213e+02   4.7136279e+02   4.7138345e+02   4.7140411e+02   4.7142477e+02   4.7144543e+02   4.7146609e+02   4.7148676e+02   4.7150742e+02   4.7152808e+02   4.7154874e+02   4.7156940e+02   4.7159006e+02   4.7161072e+02   4.7163138e+02   4.7165204e+02   4.7167270e+02   4.7169336e+02   4.7171402e+02   4.7173468e+02   4.7175534e+02   4.7177600e+02   4.7179666e+02   4.7181732e+02   4.7183798e+02   4.7185864e+02   4.7187930e+02   4.7189996e+02   4.7192062e+02   4.7194128e+02   4.7196194e+02   4.7201175e+02   4.7207047e+02   4.7212027e+02   4.7217007e+02   4.7300000e+02   4.7300000e+02   4.7400000e+02   4.7500000e+02   4.7600000e+02   4.7800000e+02   4.7800000e+02   4.7800000e+02   4.8000000e+02   4.8000000e+02   4.8100000e+02   4.8100000e+02   4.8100000e+02   4.8100000e+02   4.8300000e+02   4.8300000e+02   4.8500000e+02   4.8700000e+02   4.8900000e+02   4.9000000e+02   4.9100000e+02   4.9100000e+02   4.9100000e+02   4.9104980e+02   4.9109961e+02   4.9107047e+02   4.9100000e+02   4.9100000e+02   4.9100000e+02   4.9100000e+02   4.9100000e+02   4.9100000e+02   4.9000000e+02   4.8907047e+02   4.8907047e+02   4.8904980e+02   4.8907047e+02   4.9000000e+02   4.9004980e+02   4.9000000e+02   4.9000000e+02   4.8900000e+02   4.8900000e+02   4.8900000e+02   4.8814093e+02   4.8807047e+02   4.8800000e+02   4.8800000e+02   4.8900000e+02   4.8800000e+02   4.8709961e+02   4.8712027e+02   4.8800000e+02   4.8700000e+02   4.8507047e+02   4.8500000e+02   4.8407047e+02   4.8500000e+02   4.8400000e+02   4.8312027e+02   4.8400000e+02   4.8407047e+02   4.8400000e+02   4.8400000e+02   4.8500000e+02   4.8400000e+02   4.8400000e+02   4.8400000e+02   4.8300000e+02   4.8300000e+02   4.8400000e+02   4.8404980e+02   4.8407047e+02   4.8500000e+02   4.8600000e+02   4.8600000e+02   4.8700000e+02   4.8707047e+02   4.8800000e+02   4.8800000e+02   4.8709961e+02   4.8800000e+02   4.8804980e+02   4.8800000e+02   4.8717007e+02   4.8712027e+02   4.8707047e+02   4.8800000e+02   4.8700000e+02   4.8500000e+02   4.8412027e+02   4.8407047e+02   4.8400000e+02   4.8400000e+02   4.8300000e+02   4.8200000e+02   4.8200000e+02   4.8100000e+02   4.8019073e+02   4.8014093e+02   4.8012027e+02   4.8200000e+02   4.8300000e+02   4.8300000e+02   4.8200000e+02   4.8300000e+02   4.8207047e+02   4.8212027e+02   4.8209961e+02   4.8212027e+02   4.8400000e+02   4.8400000e+02   4.8300000e+02   4.8200000e+02   4.8104980e+02   4.8100000e+02   4.7914093e+02   4.7907047e+02   4.8000000e+02   4.8100000e+02   4.8200000e+02   4.8200000e+02   4.8200000e+02   4.8100000e+02   4.8004980e+02   4.8007047e+02   4.8004980e+02   4.8100000e+02   4.8100000e+02   4.8007047e+02
4.7116467e+02   4.7114401e+02   4.7112335e+02   4.7110269e+02   4.7108203e+02   4.7106137e+02   4.7108203e+02   4.7110269e+02   4.7112335e+02   4.7114401e+02   4.7116467e+02   4.7118533e+02   4.7120599e+02   4.7122665e+02   4.7124731e+02   4.7126797e+02   4.7128864e+02   4.7130930e+02   4.7132996e+02   4.7135062e+02   4.7137128e+02   4.7139194e+02   4.7141260e+02   4.7143326e+02   4.7145392e+02   4.7147458e+02   4.7149524e+02   4.7151590e+02   4.7153656e+02   4.7155722e+02   4.7157788e+02   4.7159854e+02   4.7161920e+02   4.7163986e+02   4.7166052e+02   4.7168118e+02   4.7170184e+02   4.7172250e+02   4.7174316e+02   4.7176382e+02   4.7178448e+02   4.7180515e+02   4.7182581e+02   4.7184647e+02   4.7186713e+02   4.7188779e+02   4.7190845e+02   4.7192911e+02   4.7194977e+02   4.7197043e+02   4.7199109e+02   4.7201175e+02   4.7203241e+02   4.7300000e+02   4.7300000e+02   4.7219073e+02   4.7224054e+02   4.7300000e+02   4.7304980e+02   4.7400000e+02   4.7500000e+02   4.7700000e+02   4.7700000e+02   4.7800000e+02   4.7900000e+02   4.8000000e+02   4.8100000e+02   4.8100000e+02   4.7904980e+02   4.7907047e+02   4.8000000e+02   4.8200000e+02   4.8400000e+02   4.8500000e+02   4.8700000e+02   4.8900000e+02   4.9000000e+02   4.9100000e+02   4.9100000e+02   4.9107047e+02   4.9107047e+02   4.9107047e+02   4.9100000e+02   4.9000000e+02   4.9000000e+02   4.9100000e+02   4.9100000e+02   4.9100000e+02   4.8907047e+02   4.8907047e+02   4.8912027e+02   4.8909961e+02   4.9000000e+02   4.9100000e+02   4.9100000e+02   4.9007047e+02   4.9000000e+02   4.8907047e+02   4.8904980e+02   4.8900000e+02   4.8900000e+02   4.8900000e+02   4.8900000e+02   4.9000000e+02   4.9000000e+02   4.8900000e+02   4.8800000e+02   4.8717007e+02   4.8800000e+02   4.8700000e+02   4.8600000e+02   4.8500000e+02   4.8412027e+02   4.8500000e+02   4.8500000e+02   4.8400000e+02   4.8400000e+02   4.8500000e+02   4.8600000e+02   4.8600000e+02   4.8600000e+02   4.8600000e+02   4.8407047e+02   4.8400000e+02   4.8304980e+02   4.8307047e+02   4.8400000e+02   4.8500000e+02   4.8600000e+02   4.8600000e+02   4.8600000e+02   4.8700000e+02   4.8700000e+02   4.8707047e+02   4.8800000e+02   4.8800000e+02   4.8714941e+02   4.8800000e+02   4.8900000e+02   4.8900000e+02   4.8800000e+02   4.8800000e+02   4.8800000e+02   4.8800000e+02   4.8800000e+02   4.8600000e+02   4.8500000e+02   4.8500000e+02   4.8500000e+02   4.8500000e+02   4.8300000e+02   4.8200000e+02   4.8100000e+02   4.8026120e+02   4.8021140e+02   4.8019073e+02   4.8017007e+02   4.8200000e+02   4.8300000e+02   4.8400000e+02   4.8300000e+02   4.8300000e+02   4.8212027e+02   4.8214093e+02   4.8214941e+02   4.8300000e+02   4.8400000e+02   4.8300000e+02   4.8204980e+02   4.8200000e+02   4.8200000e+02   4.8200000e+02   4.8000000e+02   4.8000000e+02   4.8000000e+02   4.8100000e+02   4.8200000e+02   4.8207047e+02   4.8200000e+02   4.8200000e+02   4.8100000e+02   4.8200000e+02   4.8200000e+02   4.8200000e+02   4.8100000e+02   4.8000000e+02
4.7121448e+02   4.7119382e+02   4.7117316e+02   4.7115250e+02   4.7113184e+02   4.7111118e+02   4.7113184e+02   4.7115250e+02   4.7117316e+02   4.7119382e+02   4.7121448e+02   4.7123514e+02   4.7125580e+02   4.7127646e+02   4.7129712e+02   4.7131778e+02   4.7133844e+02   4.7135910e+02   4.7137976e+02   4.7140042e+02   4.7142108e+02   4.7144174e+02   4.7146240e+02   4.7148306e+02   4.7150372e+02   4.7152438e+02   4.7154504e+02   4.7156570e+02   4.7158636e+02   4.7160703e+02   4.7162769e+02   4.7164835e+02   4.7166901e+02   4.7168967e+02   4.7171033e+02   4.7173099e+02   4.7175165e+02   4.7177231e+02   4.7179297e+02   4.7181363e+02   4.7183429e+02   4.7185495e+02   4.7187561e+02   4.7189627e+02   4.7191693e+02   4.7193759e+02   4.7195825e+02   4.7197891e+02   4.7199957e+02   4.7202023e+02   4.7204089e+02   4.7206155e+02   4.7208221e+02   4.7210287e+02   4.7215268e+02   4.7220248e+02   4.7300000e+02   4.7300000e+02   4.7400000e+02   4.7307047e+02   4.7400000e+02   4.7600000e+02   4.7700000e+02   4.7800000e+02   4.7800000e+02   4.7900000e+02   4.8000000e+02   4.8000000e+02   4.7900000e+02   4.7900000e+02   4.8000000e+02   4.8100000e+02   4.8200000e+02   4.8400000e+02   4.8600000e+02   4.8800000e+02   4.8900000e+02   4.9000000e+02   4.9100000e+02   4.9100000e+02   4.9100000e+02   4.9100000e+02   4.9100000e+02   4.9000000e+02   4.8800000e+02   4.8800000e+02   4.8900000e+02   4.8900000e+02   4.8900000e+02   4.9000000e+02   4.8909961e+02   4.8912027e+02   4.9100000e+02   4.9100000e+02   4.9004980e+02   4.9007047e+02   4.9000000e+02   4.8912027e+02   4.9000000e+02   4.9000000e+02   4.9000000e+02   4.8907047e+02   4.8907047e+02   4.9000000e+02   4.9000000e+02   4.8900000e+02   4.8800000e+02   4.8800000e+02   4.8800000e+02   4.8800000e+02   4.8600000e+02   4.8500000e+02   4.8417007e+02   4.8500000e+02   4.8500000e+02   4.8404980e+02   4.8500000e+02   4.8600000e+02   4.8700000e+02   4.8700000e+02   4.8700000e+02   4.8700000e+02   4.8500000e+02   4.8500000e+02   4.8400000e+02   4.8400000e+02   4.8400000e+02   4.8600000e+02   4.8700000e+02   4.8700000e+02   4.8700000e+02   4.8800000e+02   4.8800000e+02   4.8800000e+02   4.8900000e+02   4.8900000e+02   4.8719922e+02   4.8800000e+02   4.8900000e+02   4.8900000e+02   4.8807047e+02   4.8804980e+02   4.8900000e+02   4.8900000e+02   4.8800000e+02   4.8700000e+02   4.8600000e+02   4.8600000e+02   4.8600000e+02   4.8500000e+02   4.8300000e+02   4.8200000e+02   4.8100000e+02   4.8100000e+02   4.8100000e+02   4.8100000e+02   4.8200000e+02   4.8300000e+02   4.8400000e+02   4.8400000e+02   4.8400000e+02   4.8300000e+02   4.8300000e+02   4.8300000e+02   4.8300000e+02   4.8221988e+02   4.8226968e+02   4.8300000e+02   4.8300000e+02   4.8300000e+02   4.8300000e+02   4.8300000e+02   4.8100000e+02   4.8100000e+02   4.8100000e+02   4.8100000e+02   4.8200000e+02   4.8207047e+02   4.8207047e+02   4.8200000e+02   4.8200000e+02   4.8200000e+02   4.8200000e+02   4.8200000e+02   4.8100000e+02   4.8000000e+02
4.7126428e+02   4.7124362e+02   4.7122296e+02   4.7120230e+02   4.7118164e+02   4.7116098e+02   4.7118164e+02   4.7120230e+02   4.7122296e+02   4.7124362e+02   4.7126428e+02   4.7128494e+02   4.7130560e+02   4.7132626e+02   4.7134692e+02   4.7136758e+02   4.7138824e+02   4.7140891e+02   4.7142957e+02   4.7145023e+02   4.7147089e+02   4.7149155e+02   4.7151221e+02   4.7153287e+02   4.7155353e+02   4.7157419e+02   4.7159485e+02   4.7161551e+02   4.7163617e+02   4.7165683e+02   4.7167749e+02   4.7169815e+02   4.7171881e+02   4.7173947e+02   4.7176013e+02   4.7178079e+02   4.7180145e+02   4.7182211e+02   4.7184277e+02   4.7186343e+02   4.7188409e+02   4.7190475e+02   4.7192541e+02   4.7194608e+02   4.7196674e+02   4.7198740e+02   4.7200806e+02   4.7202872e+02   4.7204938e+02   4.7207004e+02   4.7209070e+02   4.7211136e+02   4.7213202e+02   4.7215268e+02   4.7217334e+02   4.7222314e+02   4.7300000e+02   4.7300000e+02   4.7300000e+02   4.7300000e+02   4.7300000e+02   4.7400000e+02   4.7500000e+02   4.7700000e+02   4.7700000e+02   4.7800000e+02   4.7800000e+02   4.7800000e+02   4.7800000e+02   4.7807047e+02   4.8000000e+02   4.8000000e+02   4.8100000e+02   4.8400000e+02   4.8600000e+02   4.8800000e+02   4.8800000e+02   4.8800000e+02   4.8900000e+02   4.9000000e+02   4.9000000e+02   4.9000000e+02   4.9100000e+02   4.9000000e+02   4.8800000e+02   4.8704980e+02   4.8707047e+02   4.8707047e+02   4.8900000e+02   4.9000000e+02   4.8904980e+02   4.9000000e+02   4.9000000e+02   4.9000000e+02   4.9000000e+02   4.9000000e+02   4.9000000e+02   4.9000000e+02   4.9100000e+02   4.9100000e+02   4.9100000e+02   4.9100000e+02   4.9000000e+02   4.9000000e+02   4.8907047e+02   4.8900000e+02   4.8900000e+02   4.8807047e+02   4.8804980e+02   4.8800000e+02   4.8600000e+02   4.8424054e+02   4.8500000e+02   4.8700000e+02   4.8600000e+02   4.8500000e+02   4.8500000e+02   4.8700000e+02   4.8700000e+02   4.8707047e+02   4.8800000e+02   4.8800000e+02   4.8700000e+02   4.8600000e+02   4.8600000e+02   4.8500000e+02   4.8600000e+02   4.8700000e+02   4.8800000e+02   4.8900000e+02   4.8900000e+02   4.8800000e+02   4.8804980e+02   4.8807047e+02   4.8807047e+02   4.8900000e+02   4.8900000e+02   4.9000000e+02   4.8900000e+02   4.8900000e+02   4.8900000e+02   4.8800000e+02   4.8900000e+02   4.8900000e+02   4.8800000e+02   4.8700000e+02   4.8604980e+02   4.8600000e+02   4.8500000e+02   4.8500000e+02   4.8300000e+02   4.8300000e+02   4.8300000e+02   4.8200000e+02   4.8200000e+02   4.8300000e+02   4.8400000e+02   4.8500000e+02   4.8500000e+02   4.8500000e+02   4.8500000e+02   4.8400000e+02   4.8400000e+02   4.8500000e+02   4.8400000e+02   4.8300000e+02   4.8300000e+02   4.8500000e+02   4.8500000e+02   4.8400000e+02   4.8300000e+02   4.8200000e+02   4.8200000e+02   4.8200000e+02   4.8200000e+02   4.8300000e+02   4.8300000e+02   4.8207047e+02   4.8300000e+02   4.8300000e+02   4.8300000e+02   4.8300000e+02   4.8300000e+02   4.8100000e+02   4.8007047e+02   4.8000000e+02
4.7131409e+02   4.7129343e+02   4.7127277e+02   4.7125211e+02   4.7123145e+02   4.7121078e+02   4.7123145e+02   4.7125211e+02   4.7127277e+02   4.7129343e+02   4.7131409e+02   4.7133475e+02   4.7135541e+02   4.7137607e+02   4.7139673e+02   4.7141739e+02   4.7143805e+02   4.7145871e+02   4.7147937e+02   4.7150003e+02   4.7152069e+02   4.7154135e+02   4.7156201e+02   4.7158267e+02   4.7160333e+02   4.7162399e+02   4.7164465e+02   4.7166531e+02   4.7168597e+02   4.7170663e+02   4.7172729e+02   4.7174796e+02   4.7176862e+02   4.7178928e+02   4.7180994e+02   4.7183060e+02   4.7185126e+02   4.7187192e+02   4.7189258e+02   4.7191324e+02   4.7193390e+02   4.7195456e+02   4.7197522e+02   4.7199588e+02   4.7201654e+02   4.7203720e+02   4.7205786e+02   4.7207852e+02   4.7209918e+02   4.7211984e+02   4.7214050e+02   4.7216116e+02   4.7218182e+02   4.7220248e+02   4.7222314e+02   4.7224380e+02   4.7229361e+02   4.7234341e+02   4.7239322e+02   4.7244302e+02   4.7249283e+02   4.7300000e+02   4.7400000e+02   4.7600000e+02   4.7600000e+02   4.7700000e+02   4.7700000e+02   4.7700000e+02   4.7800000e+02   4.7900000e+02   4.8000000e+02   4.7900000e+02   4.8000000e+02   4.8300000e+02   4.8600000e+02   4.8700000e+02   4.8700000e+02   4.8507047e+02   4.8700000e+02   4.8800000e+02   4.8800000e+02   4.8800000e+02   4.8900000e+02   4.8900000e+02   4.8800000e+02   4.8700000e+02   4.8700000e+02   4.8700000e+02   4.8900000e+02   4.8900000e+02   4.8900000e+02   4.8900000e+02   4.8814093e+02   4.8900000e+02   4.8900000e+02   4.9000000e+02   4.9007047e+02   4.9100000e+02   4.9100000e+02   4.9104980e+02   4.9107047e+02   4.9100000e+02   4.9100000e+02   4.9000000e+02   4.9000000e+02   4.9000000e+02   4.8900000e+02   4.8812027e+02   4.8807047e+02   4.8800000e+02   4.8600000e+02   4.8600000e+02   4.8700000e+02   4.8700000e+02   4.8600000e+02   4.8507047e+02   4.8600000e+02   4.8700000e+02   4.8707047e+02   4.8800000e+02   4.8900000e+02   4.8800000e+02   4.8800000e+02   4.8600000e+02   4.8507047e+02   4.8504980e+02   4.8600000e+02   4.8700000e+02   4.8800000e+02   4.8900000e+02   4.8900000e+02   4.8900000e+02   4.8900000e+02   4.8812027e+02   4.8814093e+02   4.8814093e+02   4.8900000e+02   4.9000000e+02   4.8900000e+02   4.8807047e+02   4.8900000e+02   4.8721140e+02   4.8719073e+02   4.8800000e+02   4.8704980e+02   4.8700000e+02   4.8700000e+02   4.8700000e+02   4.8500000e+02   4.8400000e+02   4.8307047e+02   4.8307047e+02   4.8300000e+02   4.8300000e+02   4.8400000e+02   4.8500000e+02   4.8500000e+02   4.8600000e+02   4.8700000e+02   4.8700000e+02   4.8600000e+02   4.8500000e+02   4.8500000e+02   4.8600000e+02   4.8600000e+02   4.8500000e+02   4.8500000e+02   4.8600000e+02   4.8500000e+02   4.8400000e+02   4.8300000e+02   4.8300000e+02   4.8207047e+02   4.8204980e+02   4.8207047e+02   4.8300000e+02   4.8300000e+02   4.8212027e+02   4.8214093e+02   4.8300000e+02   4.8307047e+02   4.8304980e+02   4.8300000e+02   4.8200000e+02   4.8100000e+02   4.8100000e+02
4.7136389e+02   4.7134323e+02   4.7132257e+02   4.7130191e+02   4.7128125e+02   4.7126059e+02   4.7128125e+02   4.7130191e+02   4.7132257e+02   4.7134323e+02   4.7136389e+02   4.7138455e+02   4.7140521e+02   4.7142587e+02   4.7144653e+02   4.7146719e+02   4.7148785e+02   4.7150851e+02   4.7152917e+02   4.7154984e+02   4.7157050e+02   4.7159116e+02   4.7161182e+02   4.7163248e+02   4.7165314e+02   4.7167380e+02   4.7169446e+02   4.7171512e+02   4.7173578e+02   4.7175644e+02   4.7177710e+02   4.7179776e+02   4.7181842e+02   4.7183908e+02   4.7185974e+02   4.7188040e+02   4.7190106e+02   4.7192172e+02   4.7194238e+02   4.7196304e+02   4.7198370e+02   4.7200436e+02   4.7202502e+02   4.7204568e+02   4.7206635e+02   4.7208701e+02   4.7210767e+02   4.7212833e+02   4.7214899e+02   4.7216965e+02   4.7219031e+02   4.7221097e+02   4.7223163e+02   4.7225229e+02   4.7227295e+02   4.7229361e+02   4.7231427e+02   4.7236407e+02   4.7241388e+02   4.7246368e+02   4.7300000e+02   4.7400000e+02   4.7500000e+02   4.7500000e+02   4.7600000e+02   4.7507047e+02   4.7600000e+02   4.7700000e+02   4.7900000e+02   4.7900000e+02   4.7804980e+02   4.7807047e+02   4.7900000e+02   4.8200000e+02   4.8400000e+02   4.8500000e+02   4.8500000e+02   4.8500000e+02   4.8600000e+02   4.8700000e+02   4.8700000e+02   4.8707047e+02   4.8704980e+02   4.8700000e+02   4.8700000e+02   4.8500000e+02   4.8500000e+02   4.8600000e+02   4.8800000e+02   4.8900000e+02   4.8900000e+02   4.8807047e+02   4.8807047e+02   4.8807047e+02   4.9000000e+02   4.9000000e+02   4.9100000e+02   4.9100000e+02   4.9104980e+02   4.9107047e+02   4.9104980e+02   4.9100000e+02   4.9007047e+02   4.9007047e+02   4.9004980e+02   4.9000000e+02   4.8900000e+02   4.8900000e+02   4.8900000e+02   4.8800000e+02   4.8700000e+02   4.8700000e+02   4.8800000e+02   4.8800000e+02   4.8700000e+02   4.8700000e+02   4.8700000e+02   4.8700000e+02   4.8704980e+02   4.8800000e+02   4.8900000e+02   4.8900000e+02   4.8800000e+02   4.8600000e+02   4.8512027e+02   4.8509961e+02   4.8600000e+02   4.8700000e+02   4.8800000e+02   4.8900000e+02   4.8907047e+02   4.9000000e+02   4.8900000e+02   4.8900000e+02   4.8819073e+02   4.8900000e+02   4.9000000e+02   4.9000000e+02   4.8900000e+02   4.8804980e+02   4.8800000e+02   4.8800000e+02   4.8714093e+02   4.8800000e+02   4.8707047e+02   4.8700000e+02   4.8700000e+02   4.8600000e+02   4.8400000e+02   4.8314093e+02   4.8314093e+02   4.8400000e+02   4.8304980e+02   4.8400000e+02   4.8500000e+02   4.8500000e+02   4.8600000e+02   4.8700000e+02   4.8800000e+02   4.8900000e+02   4.8700000e+02   4.8600000e+02   4.8600000e+02   4.8700000e+02   4.8700000e+02   4.8600000e+02   4.8507047e+02   4.8507047e+02   4.8500000e+02   4.8400000e+02   4.8400000e+02   4.8300000e+02   4.8212027e+02   4.8209961e+02   4.8212027e+02   4.8300000e+02   4.8400000e+02   4.8300000e+02   4.8300000e+02   4.8300000e+02   4.8400000e+02   4.8400000e+02   4.8400000e+02   4.8400000e+02   4.8300000e+02   4.8200000e+02
